# .PCD v0.7 - Point Cloud Data file format
VERSION 0.7
FIELDS x y z
SIZE 4 4 4
TYPE F F F
COUNT 1 1 1
WIDTH 166
HEIGHT 1
VIEWPOINT 0 0 0 1 0 0 0
POINTS 166
DATA ascii
-1.546188 -0.2452382 -0.96337187
-2.014636 -0.82463092 -0.91274792
-2.053652 -0.84067613 -0.89389598
-1.321146 0.65014082 -0.89077407
-2.0644519 -0.84823072 -0.8835566
-1.828052 -0.57280558 -0.87732661
-2.0708179 -0.85058951 -0.86968893
-1.879676 -0.58644158 -0.86518317
-1.861032 -0.57412702 -0.8654083
-1.8291301 -0.33049411 -0.86719787
-1.836732 -0.32693139 -0.85880268
-1.903401 -0.59494531 -0.84773707
-1.793884 -0.3599689 -0.84745222
-1.871335 -0.33814669 -0.8366912
-1.875653 -0.34479231 -0.82219821
-2.1359389 -0.85823828 -0.81627542
-1.764274 -0.3571375 -0.79512292
-1.442914 0.56488281 -0.7925902
-1.295632 0.60918999 -0.77702707
-1.260729 0.84671319 -0.77130032
-1.190325 0.88057852 -0.7733379
-1.795417 -0.3719112 -0.76714772
-1.574564 -0.1095081 -0.76834768
-1.418207 0.37372649 -0.76131439
-1.822497 -0.37166709 -0.75558567
-1.747889 -0.105854 -0.7588141
-1.425999 0.3884663 -0.74118131
-1.194293 0.97667569 -0.74707007
-1.902526 -0.67309773 -0.7224071
-1.823437 -0.34928039 -0.72612298
-1.790903 -0.3324261 -0.72423398
-1.773403 -0.33308709 -0.72720712
-1.467127 0.1275298 -0.72004771
-1.251191 0.47362271 -0.72660053
-1.306545 0.84644401 -0.7234292
-1.144238 0.85577428 -0.72793537
-1.741974 -0.1378824 -0.71740019
-1.453456 0.41408259 -0.71296382
-1.350616 0.62637186 -0.71334672
-1.880402 -0.48848891 -0.70128781
-1.883585 -0.46872601 -0.70213228
-1.915898 -0.35155371 -0.70240891
-1.477995 0.1193567 -0.7083894
-1.458356 0.3857787 -0.70934701
-1.360546 0.74954432 -0.70594919
-1.220114 0.92147177 -0.70779788
-2.0247951 -0.91091943 -0.69825113
-1.870065 -0.45492351 -0.6980983
-1.481655 0.1190815 -0.69853139
-1.460673 0.1194783 -0.69447172
-1.978353 -0.89616573 -0.68787122
-1.547001 -0.089238986 -0.68898499
-1.319189 0.35421139 -0.68088251
-1.587661 0.5721606 -0.68003511
-1.240667 0.92423129 -0.68206197
-1.23355 0.92618722 -0.68949729
-1.691471 -0.1388187 -0.6738528
-1.580194 -0.093236297 -0.67747581
-1.6166019 0.57119042 -0.67620343
-2.2039771 -0.95126557 -0.66053998
-1.852252 -0.8554312 -0.66025728
-1.932034 -0.47030011 -0.66611987
-1.687914 -0.1000444 -0.6509558
-1.635267 -0.09992937 -0.65244633
-1.354956 0.3530356 -0.65437359
-1.3243356 0.35364944 -0.65797138
-1.29452 0.37035689 -0.65330952
-1.254686 0.93431783 -0.6592924
-1.630686 -0.4083426 -0.6411438
-1.345499 0.36082101 -0.64091557
-1.2742209 0.92229623 -0.64472032
-1.971408 -0.89469749 -0.63639838
-1.828696 -0.1107938 -0.63345861
-1.3451051 0.35205919 -0.63199782
-1.772131 -0.111448 -0.62659627
-1.624655 -0.62246889 -0.61895013
-1.2161781 0.58675402 -0.61308718
-1.515175 0.14279 -0.60552639
-1.70182 -0.63525218 -0.59836489
-1.580358 0.1394306 -0.59760761
-1.559037 0.1397635 -0.598768
-1.457919 0.3490141 -0.59282988
-1.880901 -0.71569377 -0.58680558
-1.668833 -0.63342398 -0.5848009
-1.601218 0.12636749 -0.58182663
-1.3496979 0.380366 -0.58379412
-1.240643 0.58824283 -0.58369797
-1.6900001 -0.43155181 -0.57274753
-1.553003 0.110299 -0.57211661
-1.5885741 0.36607361 -0.5709573
-1.527405 -0.19306301 -0.56337881
-1.0021811 1.0284261 -0.56515241
-0.99585599 1.030539 -0.5662359
-1.290125 0.54987907 -0.55022562
-1.182019 0.2580241 -0.54731452
-1.9004101 -0.72256738 -0.53818679
-1.716725 -0.45576069 -0.53357792
-1.434345 0.38589981 -0.53467512
-1.234701 0.87582529 -0.53404307
-1.226343 0.87313968 -0.53155708
-1.733081 -0.4618243 -0.52750063
-1.716669 -0.46018901 -0.52972972
-1.531513 -0.39569461 -0.52895671
-1.4227999 0.38375089 -0.52275163
-1.301927 0.54847968 -0.52636027
-1.759856 -0.47978729 -0.5198195
-1.182771 0.87832057 -0.51756501
-1.964735 -0.7628457 -0.50090623
-1.6015691 -0.4177565 -0.50232857
-1.511839 0.38841999 -0.50768441
-1.1928771 0.88639468 -0.50182748
-1.776224 -0.48829591 -0.4951829
-1.472572 0.64464343 -0.4910447
-1.828768 -0.52504867 -0.48577869
-1.250635 0.2733998 -0.48875231
-1.461429 -0.1703369 -0.47513261
-1.485992 -0.16669279 -0.47835419
-1.0726939 1.051477 -0.4607175
-1.47091 -0.1862116 -0.44254681
-1.571492 0.63264459 -0.43192539
-1.885121 -0.5028488 -0.42137301
-1.280311 0.2544243 -0.4252634
-1.315213 0.29227799 -0.4206982
-1.3196141 0.2428609 -0.41115481
-1.286597 0.254217 -0.41304141
-1.290499 0.26213661 -0.41480201
-1.301219 0.2556932 -0.3913992
-1.30869 0.27493119 -0.39668211
-1.227881 0.3125113 -0.39911741
-1.443982 0.044222862 -0.3872174
-1.461683 0.049769789 -0.37224311
-1.187971 0.26324329 -0.3652536
-1.2913491 0.1791933 -0.35870749
-1.570871 0.0089678839 -0.34724531
-1.192319 0.2611396 -0.34422421
-1.35928 0.2492476 -0.33671671
-1.2851599 0.2416666 -0.31287131
-1.231425 0.26343879 -0.31918421
-1.333459 0.2415401 -0.28588149
-1.325963 0.2498696 -0.28414869
-1.3456939 0.28910461 -0.28405201
-1.150728 0.43633771 -0.2824074
-1.738399 -0.14903229 -0.27337801
-1.100148 0.28053069 -0.27083239
-1.31621 0.2529349 -0.26979539
-1.317941 0.2346513 -0.25190091
-1.08845 0.75677508 -0.2535114
-1.095227 0.75453848 -0.24339101
-1.094589 0.76282382 -0.2430314
-1.166811 0.2615371 -0.2364729
-1.4475631 0.1014628 -0.2227509
-1.157395 0.192957 -0.22830901
-1.435022 0.206525 -0.2233251
-1.533244 0.27006581 -0.2000369
-1.010736 0.64916402 -0.20748059
-1.219209 0.3900806 -0.18872879
-1.209103 0.3968586 -0.1831236
-1.249521 0.40868899 -0.17418019
-1.222764 0.4448626 -0.1734052
-1.1918809 0.4371624 -0.16619401
-1.206267 0.4454678 -0.1644139
-1.101601 0.2161015 -0.1390433
-1.29634 0.37813669 -0.1048639
-1.0151891 0.66941988 -0.04793667
-1.079154 0.65849513 0.0035194689
-1.1101969 0.6758551 0.1027046
