# .PCD v0.7 - Point Cloud Data file format
VERSION 0.7
FIELDS x y z
SIZE 4 4 4
TYPE F F F
COUNT 1 1 1
WIDTH 133
HEIGHT 1
VIEWPOINT 0 0 0 1 0 0 0
POINTS 133
DATA ascii
-2.0668261 -0.3396413 0.51908082
-1.897699 -0.3934921 0.62229139
-2.124146 -0.36632839 0.65794718
-2.0796859 -0.37929571 0.70222563
-2.306268 -0.95969462 0.73856908
-2.2652609 -1.138063 0.76337647
-2.294055 -0.7830655 0.79827821
-2.0888979 -0.78619188 0.80566382
-2.097976 -0.77248758 0.81446379
-2.151479 -0.80457878 0.82848561
-2.2943561 -0.66236389 0.82445443
-2.0128109 -0.4639405 0.85172307
-2.500397 -1.209169 0.86839938
-2.1027229 -0.45085269 0.86420631
-2.2296059 -1.2089061 0.87421292
-2.324301 -0.71319288 0.87551123
-2.2518001 -0.53612059 0.89243352
-2.096684 -0.46697909 0.89671522
-2.268636 -0.53465188 0.90922242
-2.077296 -0.84690672 0.95554662
-2.218116 -1.092091 0.97353292
-2.3133619 -1.298654 0.98013502
-2.2352309 -1.101189 0.98990178
-2.2292459 -0.52041698 1.031243
-2.0494659 -0.9131366 1.045123
-2.2250791 -0.93539852 1.061312
-2.0418379 -1.284238 1.092899
-2.107949 -0.91766047 1.092258
-2.2368989 -0.86917812 1.100276
-2.427985 -0.4776209 1.121986
-2.078383 -0.57010788 1.1300451
-2.2249219 -1.189749 1.168757
-2.2162681 -1.2240289 1.211442
-1.992978 -1.127762 1.331585
-1.977025 -1.3403651 1.365151
-2.1937611 -1.385136 1.429714
-2.2763591 -1.246176 1.439764
-2.295243 -1.245345 1.451546
-1.856554 -1.239205 1.532322
-1.917496 -1.280761 1.554281
-2.0871949 -1.781065 1.5791121
-2.0915871 -1.312957 1.575983
-2.093014 -1.771248 1.583268
-1.807592 -1.032032 1.593719
-2.097553 -1.808267 1.605189
-1.854223 -1.060468 1.604528
-2.151154 -1.85562 1.646664
-2.00701 -1.742503 1.661569
-2.0175059 -1.700066 1.67907
-2.0727589 -1.5935839 1.693841
-2.0006721 -1.557906 1.702264
-2.028162 -1.635956 1.716689
-2.0746989 -1.574051 1.711233
-2.0195589 -1.564973 1.712145
-2.0020261 -1.540225 1.710312
-2.040796 -1.533527 1.728599
-2.136687 -1.8817019 1.731755
-2.073278 -1.0927711 1.736968
-2.0834219 -1.557223 1.740556
-1.971094 -1.4028291 1.754721
-1.9453861 -1.405236 1.757066
-2.0599661 -1.583627 1.7670619
-2.2080829 -1.886288 1.776276
-2.1187129 -1.560395 1.77324
-2.0001121 -1.261966 1.7733541
-2.141716 -1.56874 1.789205
-2.051837 -1.377983 1.790959
-2.066195 -1.4434119 1.824955
-2.002876 -1.2929699 1.828964
-2.039221 -1.297194 1.839962
-1.968974 -1.294582 1.830572
-2.0158379 -1.2907881 1.841083
-2.026078 -1.310275 1.8565789
-2.0396831 -1.305864 1.8575031
-1.953975 -1.12195 1.857547
-1.910347 -0.85102159 1.86498
-1.894202 -0.45245701 1.8634191
-2.104888 -1.35116 1.877354
-2.0279469 -1.218133 1.894652
-2.033464 -1.223123 1.903296
-2.038059 -1.143876 1.900418
-1.996539 -1.14431 1.9079781
-2.023972 -1.139838 1.909843
-1.915676 -0.96459877 1.905159
-1.931012 -1.053533 1.9146349
-1.967118 -0.86535591 1.91239
-1.987982 -1.269394 1.92997
-2.028482 -1.2638431 1.935298
-2.0510049 -1.157624 1.934667
-1.936888 -0.4444657 1.932089
-2.136651 -1.373948 1.946026
-1.99122 -1.154496 1.941947
-2.0012169 -1.034673 1.94188
-1.999324 -0.97304612 1.947081
-1.97922 -0.97007722 1.943336
-2.0725241 -1.090199 1.957657
-2.0022149 -0.97185183 1.987133
-1.8052779 0.01635986 1.989557
-1.984282 -1.080328 1.992311
-2.0821619 -1.053763 2.0023301
-2.085588 -1.047377 2.000128
-2.0283899 -0.96992081 2.006813
-2.07142 -0.97201258 2.0298719
-2.0604451 -0.97085989 2.0221641
-1.9785 -0.90381998 2.0266149
-2.064764 -1.094716 2.0384469
-2.0312369 -1.097363 2.045763
-1.802479 -0.099262707 2.0489111
-1.968603 -0.66917992 2.078794
-2.137331 -0.99074107 2.083257
-2.1856639 -1.1120991 2.0981171
-1.842662 -0.1404715 2.0907381
-1.999225 -0.70121562 2.1010809
-1.901649 -0.18043479 2.1092551
-2.058815 -0.82822281 2.1128941
-2.0014341 -0.70057857 2.123656
-2.011447 -0.45179111 2.12849
-1.838047 -0.03405999 2.12886
-2.084511 -0.72379398 2.139343
-2.0185089 -0.70288312 2.134654
-1.982877 -0.3905209 2.1330819
-1.974131 -0.56582028 2.148895
-1.99764 -0.176571 2.1468191
-1.996146 -0.19244739 2.1502349
-1.987829 -0.43799809 2.1655719
-1.798368 0.01403226 2.1647861
-1.8734205 -0.046945013 2.1764975
-2.0913799 -0.2233344 2.2561719
-1.879746 -0.03134691 2.264818
-1.854884 -0.03914449 2.2883141
-1.92172 -0.027192401 2.2962921
-1.865729 -0.03409788 2.3013091
-1.893855 -0.04945904 2.3191481
