# .PCD v0.7 - Point Cloud Data file format
VERSION 0.7
FIELDS x y z
SIZE 4 4 4
TYPE F F F
COUNT 1 1 1
WIDTH 133
HEIGHT 1
VIEWPOINT 0 0 0 1 0 0 0
POINTS 133
DATA ascii
1.181571 0.55257761 1.034263
1.109892 0.53911531 1.044871
1.0720201 0.61119407 1.0670739
1.053612 0.61125702 1.117063
1.239994 0.47421619 1.204666
0.93310672 0.58606762 1.215804
1.677339 0.54854488 1.438287
1.68323 0.55373061 1.443812
1.317416 0.3920919 1.472546
1.345952 0.38059241 1.491702
1.488369 0.384754 1.513963
1.301042 0.3698253 1.536768
1.448311 0.3576405 1.563601
0.71274072 0.30925649 1.5714771
1.544245 0.34969121 1.5735691
1.706093 0.60452062 1.571502
0.59585339 0.3179785 1.626822
0.95727801 0.29491711 1.668535
1.3377351 0.29641381 1.6606899
1.220119 0.39194649 1.677217
0.82804108 0.26082999 1.727716
1.222057 0.2886318 1.739412
1.303194 0.29140019 1.737681
1.279353 0.27308679 1.7570029
1.269853 0.27205861 1.767594
1.26667 0.27605599 1.7722811
1.261867 0.2737363 1.783774
1.313418 0.2663534 1.802497
0.86443239 -1.719943 1.833599
0.7127285 0.07286863 1.839269
0.66486251 0.32111931 1.848321
0.60253519 0.30905131 1.859356
0.66056383 0.32788211 1.850174
1.005538 0.3587684 1.855064
1.010657 -1.811602 1.86954
1.009634 -1.827664 1.880867
1.011845 -1.8233351 1.881255
1.018411 -1.8113101 1.8883311
1.118585 0.33667141 1.890017
0.73446739 0.1863205 1.921598
0.94975889 0.1890941 1.939875
0.96383297 0.19280089 1.937988
1.047305 -1.529301 1.9497041
0.93275827 0.1657726 1.948987
1.1430089 0.1894674 1.975365
0.99607009 -1.439109 2.008431
0.98791921 -1.122713 2.0099909
1.317171 0.28358811 2.0117731
0.27981219 -1.364812 2.022877
0.97573918 -1.2106611 2.0202849
1.000556 0.1598862 2.020263
1.041932 -1.496997 2.033843
0.89428753 -0.88908929 2.0302401
0.91314667 -1.812953 2.068794
0.97869438 -1.069665 2.080683
1.006511 -1.1988961 2.0943699
0.95527238 -1.077123 2.1094971
0.94088769 -1.991677 2.119422
0.96257001 -1.154034 2.117466
1.214783 0.25785241 2.11255
0.82807618 -0.81385541 2.1205699
0.2640208 -1.377287 2.1323831
0.87067127 -0.63506007 2.146251
0.91287059 -0.99276751 2.15449
1.056808 -0.35253721 2.153362
0.94211447 -0.36612359 2.169215
0.91201103 -0.97344548 2.1790509
0.93824959 -0.73742622 2.171968
0.8959921 -0.32435262 2.1738935
0.85507011 -0.57869512 2.1888821
0.88748688 -0.65182698 2.1997299
0.74964422 0.23964781 2.19944
1.0134799 -1.024627 2.2010269
0.95346892 -0.90441269 2.20803
0.89199531 -0.64675683 2.2099349
1.002282 -0.97942328 2.2176099
0.91388732 -0.76430118 2.21822
0.86454332 -0.57761598 2.2189369
0.95441991 -0.69735831 2.223083
0.651254 0.2092624 2.22313
0.90630031 -0.26705429 2.233988
0.85551381 -0.2126167 2.2398109
0.80840051 0.079221427 2.2382209
1.050373 -1.236151 2.2419779
0.89112848 -1.0480959 2.240746
0.9533003 -0.55264902 2.24457
0.8529008 -0.2150584 2.2463109
0.88716668 -0.67467868 2.258265
0.89487481 -0.36076489 2.250231
0.92591149 -0.3499172 2.2519331
0.91297162 -0.277105 2.2547619
0.1783029 -1.359012 2.2691741
0.93422037 -0.97659391 2.263973
0.77019882 -0.78763288 2.260278
0.84259301 -0.57740641 2.262815
0.962026 -0.55605799 2.2605989
0.92559189 -0.33654621 2.269594
0.1685251 -1.415224 2.2783051
0.28359139 -1.376188 2.2751751
0.16614281 -1.415876 2.2879579
1.0132101 -0.74694848 2.281225
0.1691646 -1.4025019 2.2973349
1.004235 -0.74492878 2.2982841
0.85890698 -0.2237099 2.2935109
0.97831041 -1.058678 2.305856
0.67031783 -0.17491201 2.3071899
0.238001 -1.199614 2.316623
0.22883169 -1.179244 2.317976
0.67205262 -0.17436109 2.315567
0.25903109 -1.159503 2.3384171
0.99000239 -0.4829143 2.342346
0.85464507 -0.2417548 2.344244
0.97618181 -0.7637707 2.363903
0.1423858 -0.9270221 2.374038
0.53212953 -0.84971797 2.375592
0.2341191 -1.196988 2.387156
1.158041 -0.76220888 2.3874321
0.99973881 -0.44930381 2.3927469
0.19633581 -1.071617 2.4158659
0.19084831 -1.065742 2.415118
0.9590205 -0.73819292 2.416048
0.96385223 -0.098697551 2.4125371
0.9516567 -1.161249 2.427618
0.2454499 -1.072681 2.4252391
1.0240765 -0.50783277 2.427531
1.0408289 -0.38303551 2.4343009
0.33089921 -0.95094907 2.4468319
1.052747 -0.64450002 2.4592021
1.0118389 -0.30314159 2.452384
0.69114202 -0.86827648 2.4699249
1.008446 -0.302605 2.463002
0.99115843 -0.31307611 2.4919319
0.92508239 -0.74811828 2.512974
