# .PCD v0.7 - Point Cloud Data file format
VERSION 0.7
FIELDS x y z
SIZE 4 4 4
TYPE F F F
COUNT 1 1 1
WIDTH 280
HEIGHT 1
VIEWPOINT 0 0 0 1 0 0 0
POINTS 280
DATA ascii
5.487114 0.88858408 -0.8075214
5.5383682 0.77158803 -0.72324842
5.5081658 1.147885 -0.58067602
5.5158849 1.160064 -0.57370001
5.435194 0.28437981 -0.55885887
5.511456 0.30349821 -0.5487985
5.4870052 0.4489769 -0.5061636
5.5158768 0.46447739 -0.50273663
5.5818601 0.83493692 -0.50913608
5.468246 0.95237941 -0.46897379
5.6495199 0.2168052 -0.38899109
5.744853 0.2161321 -0.28497079
5.65763 0.54114842 -0.27865449
5.6629391 0.42269859 -0.2633138
5.6479468 0.60843641 -0.2604067
5.6574688 0.61115241 -0.25653079
5.6450019 0.52552491 -0.23647299
5.6077638 0.89671803 -0.2209522
5.6629281 0.4002659 -0.2137666
5.6053739 0.89558059 -0.2168306
5.6131978 0.895262 -0.2199114
5.8490839 0.98148912 -0.2003801
5.6401882 0.66182631 -0.19683491
5.7659998 0.82550418 -0.17937709
5.7605782 0.50308859 -0.14109319
5.7878499 0.59594083 -0.0285486
5.8092232 0.76098979 -0.01137488
5.7541819 0.24283379 0.016588069
5.9794202 -1.371258 0.069194503
5.88237 0.072452918 0.1331275
5.6101809 0.55823618 0.17472421
5.8749652 0.90597308 0.2085453
5.941607 -1.004429 0.2104069
5.860014 -1.379503 0.22934429
5.7025089 -0.07823725 0.2425143
6.0047669 -1.0173351 0.25214469
6.0302782 -1.0114599 0.25237671
5.7059059 -0.2841613 0.2665402
5.827723 -1.459118 0.27234989
6.035111 -1.032967 0.27961841
5.9179878 0.3193112 0.28278491
5.908298 0.3211028 0.28785291
5.6078501 0.92758638 0.29687819
5.9512901 -0.080101833 0.30032319
5.5812221 0.4310483 0.32685789
5.6144209 0.92266053 0.3301633
5.882637 -1.280212 0.35265449
5.552927 0.90195853 0.3546477
5.9878478 -0.2672357 0.36308971
5.985189 -1.4159549 0.37125739
5.8041492 0.45771739 0.38194039
5.9261088 1.049758 0.39650071
5.8058062 -1.474846 0.46017161
5.8380241 -1.503967 0.49824399
5.9721141 -0.38106221 0.51385123
5.1216378 -0.7424311 0.56356609
5.7696128 -1.11717 0.57674462
5.7828159 -1.1193269 0.57883871
5.753994 -1.106092 0.57532853
5.8011851 -1.126192 0.58094847
5.8328862 -1.128526 0.58634311
5.4619398 -1.095361 0.59557521
5.577795 -0.50446922 0.59352279
6.1991749 -0.46619371 0.59379882
5.4734721 -1.1091909 0.6153028
5.092732 -0.50815201 0.61618471
5.5139852 -1.120159 0.63930899
5.11309 -0.54794472 0.65413278
5.5293498 -1.135078 0.66977042
5.1611371 -1.0803699 0.66439009
5.6768498 -0.46371651 0.66388208
4.9928961 -1.5067865 0.68574208
5.8595338 -1.141302 0.68435222
4.555326 -1.099384 0.69274408
5.2362142 -1.095883 0.69682151
5.3793931 -0.58577418 0.69449532
4.8695192 -1.24942 0.71717221
5.397861 -1.116428 0.71436179
4.6774659 -0.81084752 0.71262968
5.3218932 -0.55332601 0.71268737
5.6512299 -0.46044159 0.71901721
4.8876972 -1.2398061 0.72867697
4.891573 -1.237029 0.72944641
5.4023309 -1.126152 0.72628558
5.495945 -0.88884568 0.72175902
4.8453159 -1.518301 0.7318489
4.888608 -1.262424 0.73673308
4.8958001 -1.242367 0.73815912
5.3959522 -1.12567 0.73333842
4.8859029 -1.5314749 0.74989778
5.4404998 -1.145761 0.76261538
4.7095432 -0.84214371 0.76332718
6.048563 -0.3633424 0.76069802
4.747828 -1.12667 0.77062827
4.7155981 -0.8494764 0.77414888
4.904974 -0.50712222 0.7772609
5.8347158 -0.50544739 0.77548659
4.9697142 -1.172897 0.78928822
4.9820728 -1.16662 0.78479451
4.7823262 -1.158525 0.79859269
5.4091091 -0.9948436 0.7953918
4.915585 -0.51259768 0.79619199
6.0388999 -0.48890361 0.79812741
4.791327 -1.156798 0.80673277
4.7255659 -0.87389702 0.81304753
4.9898791 -1.297925 0.82755488
4.8613009 -1.167623 0.82330292
5.4837399 -0.64275581 0.82264781
4.8553381 -1.175083 0.83353013
5.110847 -0.51970959 0.83356452
4.9475269 -1.017539 0.85286945
5.103548 -0.62854159 0.85783851
4.7589502 -0.59848571 0.85401422
4.9013891 -1.092595 0.86727363
4.7051549 -0.61005181 0.86648363
4.973146 -1.0246609 0.878842
4.7116199 -0.61660832 0.87744492
4.6824632 -0.6346966 0.88656121
4.480022 -0.71803349 0.89849782
6.3351002 -0.5158577 0.89158481
5.0107851 -0.95805138 0.90831029
5.2425261 -0.63781959 0.90387797
6.3445902 -0.51481009 0.90594673
4.8755579 -0.94966447 0.91229391
4.8492498 -0.91568202 0.91823572
5.9789648 -0.241446 0.91650832
5.0445409 -1.288869 0.92090052
4.8890128 -0.96082342 0.93985093
4.9278989 -0.72824252 0.93064302
5.4003391 -0.60360658 0.93290889
6.2494822 -0.5255608 0.93469763
5.5914679 -0.60191029 0.94732952
4.9127789 -0.93474388 0.95658457
5.591001 -0.6685046 0.95049691
4.9227328 -0.95213121 0.96538162
6.1974173 -0.52448523 0.96123695
6.2454638 -0.2332551 0.96350282
4.9261651 -0.9539873 0.97324151
5.2595439 -0.55833751 0.98259801
4.9235468 -0.68997228 0.99070942
5.119596 -0.57925141 0.99906981
5.1154218 -0.57460988 1.000326
4.874475 -0.6890707 1.0199651
4.7530422 -0.61146009 1.015121
5.0153122 -1.0533245 1.0230685
4.637363 -0.27403921 1.027637
4.779779 -0.70707721 1.0330141
5.036653 -1.058395 1.049522
6.1174469 -0.53921127 1.054556
4.6731601 -0.39355561 1.050229
4.6430349 -0.19454551 1.059356
4.980402 -1.258442 1.069975
4.9853721 -0.62613332 1.06121
5.0008278 -1.00493 1.086846
4.990068 -0.99596858 1.0891041
5.012146 -0.86793202 1.0848759
4.640852 -0.2172219 1.083752
5.0062499 -0.86708993 1.0900019
4.8713889 -0.65460682 1.097965
4.8797121 -0.63790792 1.0996161
4.6488428 -0.1901933 1.090589
4.9685059 -0.3959755 1.109944
5.0306401 -0.8728193 1.110005
5.003818 -0.66746569 1.114621
5.00949 -0.62608927 1.11498
4.9846311 -0.39385489 1.1285321
4.8080812 -0.41890121 1.155143
4.9849272 -0.45596963 1.1751006
4.829669 -0.41560751 1.170877
5.0547361 -0.77567911 1.191895
4.9819369 -0.76424712 1.197051
4.8907371 -0.36869669 1.1905119
4.8657351 -0.81028908 1.2098221
5.1372452 -0.77496171 1.205204
4.5735979 -0.22850411 1.215603
5.128531 -0.70695257 1.222427
4.660007 -0.25262389 1.25667
5.0448298 -0.6820603 1.284019
4.8453732 -0.42614761 1.281693
5.0636711 -0.73722339 1.294533
4.6961932 -0.31318751 1.310371
4.7521892 -0.3068178 1.3120461
5.039916 -0.62444258 1.329466
4.9137602 -0.5805825 1.32671
5.0567741 -0.62502271 1.330295
5.0684109 -0.63588059 1.341276
4.7193861 -0.32529089 1.348521
4.714272 -0.31950551 1.355324
4.507257 -0.26348189 1.365308
5.177012 -0.7355271 1.370809
5.162766 -0.69664222 1.37088
5.5874362 -0.64521283 1.388799
4.2926121 -0.28465879 1.385132
4.3695641 -0.34314409 1.414763
5.3730869 -0.75765342 1.438643
4.9902868 -0.59288877 1.455446
4.977335 -0.32778549 1.465646
4.211823 -0.2520794 1.465078
4.5457201 -0.1955009 1.4635299
4.2142 -0.25771621 1.4767441
4.3019691 -0.2459216 1.474595
4.9705071 -0.3829217 1.499625
4.1677151 -0.25697601 1.492267
4.3769751 -0.35368869 1.507697
5.0938411 -0.31343469 1.508478
3.8858311 -0.2525509 1.51588
4.9927378 -0.38436252 1.5274955
4.0834332 -0.270201 1.521992
4.9946151 -0.37493491 1.5328701
5.3079329 -0.73215461 1.544364
5.0067239 -0.38601059 1.549511
3.8836191 -0.2603592 1.546056
5.0149002 -0.38309821 1.556164
4.6872072 -0.34791139 1.568868
3.987293 -0.27788621 1.561028
4.6354842 -0.35528681 1.575636
4.853096 -0.36570939 1.581719
3.9246521 -0.28795061 1.580773
3.9421949 -0.2813313 1.582165
4.1090961 -0.31547159 1.590093
4.0180912 -0.29559851 1.5997829
4.1347499 -0.49645579 1.600184
4.6492772 -0.35479921 1.601298
3.9814761 -0.2794522 1.606529
4.7941489 -0.2428944 1.6022691
4.1000819 -0.440644 1.612208
4.4219861 -0.38518089 1.614072
5.3436632 -0.82354093 1.622018
4.737184 -0.35271779 1.62647
3.9619629 -0.28721309 1.623112
3.9240129 -0.3371383 1.6347769
4.0237732 -0.29301831 1.638168
4.60357 -0.3950763 1.665491
4.2804952 -0.3047981 1.66011
4.3101349 -0.30684921 1.6641099
4.3656311 -0.33166549 1.687615
4.621089 -0.40129191 1.698233
4.6319938 -0.39570731 1.7079279
4.7188339 -0.40198269 1.724346
4.047998 -0.3238239 1.732064
5.1391358 -0.1898642 1.7521991
4.021986 -0.41075799 1.785646
3.9838791 -0.26593229 1.782499
4.9741998 -0.1904152 1.809337
5.0829692 -0.24998809 1.8531229
4.4249368 -0.25656909 1.868058
4.309525 -0.51895809 1.890503
4.786303 -0.2716713 1.933957
4.1186032 -0.29029021 1.943179
4.117527 -0.28405741 1.945462
4.8169909 -0.2773152 1.9771399
4.9228439 -0.26957789 1.9702359
4.6700921 -0.202629 1.989971
4.6142149 -0.29696071 1.9955111
5.0023718 -0.17517459 2.0030389
4.0149298 -0.48769119 2.018363
4.3235521 -0.27741709 2.020267
4.408134 -0.2317856 2.0256121
4.4688358 -0.22440431 2.029774
4.583972 -0.30924141 2.0379691
5.0158529 -0.26677391 2.0399549
4.7932572 -0.207242 2.039875
4.4445601 -0.26845229 2.045033
4.0230799 -0.51603699 2.054239
4.7527609 -0.28604519 2.062912
5.1997008 -0.20626999 2.0677619
4.4627681 -0.32219821 2.0833559
4.6018262 -0.3052488 2.0878739
4.802062 -0.28831741 2.0833471
4.4561901 -0.2705884 2.0849659
4.7594209 -0.2111696 2.0842459
4.7025342 -0.3044382 2.091023
4.511796 -0.27075031 2.0944109
4.1109109 -0.341297 2.1073041
4.0656099 -0.36119351 2.12555
4.1835961 -0.4814676 2.1364579
4.3846312 -0.25746101 2.1352229
4.0578089 -0.48213911 2.1406369
4.163065 -0.51939762 2.198534
5.3130331 -0.4019115 2.212486
