# .PCD v0.7 - Point Cloud Data file format
VERSION 0.7
FIELDS x y z
SIZE 4 4 4
TYPE F F F
COUNT 1 1 1
WIDTH 302
HEIGHT 1
VIEWPOINT 0 0 0 1 0 0 0
POINTS 302
DATA ascii
0.24240591 0.71711338 -1.865494
0.35085759 0.6644426 -1.85721
0.1171949 0.87650591 -1.833761
0.075215057 0.88454282 -1.831866
0.066934668 0.88822436 -1.8234046
0.074559927 0.90288389 -1.8214771
0.088667788 0.8863467 -1.815101
0.078585759 0.90514898 -1.818688
0.082573697 0.88848531 -1.808812
0.67547297 0.65945238 -1.792074
0.048827011 0.98220271 -1.7836961
0.053451281 0.98049212 -1.786589
0.45074031 0.92542821 -1.775301
0.76294518 0.65779942 -1.768911
0.84844989 0.65480512 -1.755028
0.066161916 1.0848186 -1.756243
0.61360192 0.74686348 -1.7447259
0.02744069 1.0712219 -1.741876
0.065847509 1.085901 -1.7485631
0.077587813 1.084668 -1.740919
0.1375535 1.142228 -1.748348
0.06917242 1.089826 -1.730998
0.069696091 1.090328 -1.73255
0.068357147 1.200853 -1.709393
0.1051819 1.3213741 -1.700694
0.1087815 1.33181 -1.700017
0.1483501 1.345283 -1.693634
0.92598832 0.86453938 -1.6811295
0.1079518 1.3501821 -1.68549
0.52566677 0.6180191 -1.673777
0.054355972 1.346961 -1.677732
0.083053343 1.349376 -1.678714
0.05598582 1.289525 -1.667546
0.92563331 1.063113 -1.620569
0.93118811 1.066921 -1.6234061
0.8875919 1.055899 -1.619169
0.91066259 1.236099 -1.56148
0.94120771 1.2283649 -1.555057
0.92200083 1.241769 -1.536119
0.32021749 0.55285192 -1.522079
0.78519368 1.571493 -1.518099
0.89395863 1.028169 -1.49076
0.95344567 1.3319371 -1.4837015
0.0165617 0.81040502 -1.470302
0.95356733 1.32776 -1.47905
0.94375062 1.3323145 -1.4755626
0.93828428 1.336301 -1.465452
0.96681237 1.089569 -1.382033
0.97024947 1.103629 -1.380998
0.96751708 1.0931391 -1.378723
0.95617539 1.038427 -1.353426
0.99996418 1.187222 -1.34653
0.98782682 1.198773 -1.34271
0.91021341 0.77351707 -1.3346781
-0.004229275 0.83478183 -1.3082401
1.030867 1.285382 -1.303104
1.007841 1.297259 -1.3014539
1.008612 1.3026609 -1.304678
0.9924742 1.306005 -1.2946939
0.9234255 0.54935253 -1.225407
0.1661035 0.40737861 -1.199142
0.34048101 0.40668091 -1.192625
0.82512838 0.46738651 -1.190724
-0.03691598 0.4123539 -1.181186
-0.027660349 0.79063821 -1.172067
-0.022222331 0.79239172 -1.156955
-0.018731119 0.79585087 -1.1543241
0.8955912 0.9872613 -1.140829
0.82115591 0.43066871 -1.1202689
-0.064904928 0.59005809 -1.124638
-0.070929542 0.46242064 -1.1126205
1.031029 1.078604 -1.110988
0.91803622 0.5007264 -1.101761
0.89812189 0.50121617 -1.094673
0.95638722 0.83980238 -1.0902489
-0.079803847 0.58203822 -1.080191
0.96291733 0.83762032 -1.089039
0.4749209 0.40605688 -1.0730571
0.4827601 0.40983039 -1.078295
0.4748612 0.39932889 -1.0440919
0.4962503 0.40019271 -1.034112
-0.053257469 0.73363334 -1.0246655
-0.043893442 0.73773324 -1.022166
-0.056944638 0.73265386 -1.0147209
-0.043028459 0.7412318 -1.016704
-0.05223849 0.73375839 -1.00981
-0.09548784 0.41410881 -0.98946679
0.79807931 0.37254649 -0.93633461
-0.077947743 0.71369737 -0.92601877
0.89419252 0.60234839 -0.91368622
0.90354753 0.6014151 -0.91048121
-0.080579557 0.69360262 -0.91455227
-0.079383507 0.69395149 -0.91319609
0.93199098 0.7767148 -0.90598607
-0.07508748 0.70071048 -0.89983582
0.17506801 0.38406309 -0.88813579
-0.060940702 0.7100479 -0.88301092
0.1488335 0.32312399 -0.85247409
0.062506586 0.36552569 -0.84466767
0.7880137 0.49878305 -0.84747231
0.78406233 0.49425671 -0.83767939
0.81757998 0.64646059 -0.83305269
0.82550198 0.64756238 -0.83493477
0.34221509 0.31581399 -0.81426507
0.8907305 0.65239167 -0.80359823
0.83024073 0.75201219 -0.78530198
-0.1099113 0.66258061 -0.76569438
0.85542101 0.85647517 -0.75723028
0.74969459 0.60539103 -0.73979568
0.97270602 0.77012563 -0.73861569
0.9128871 0.82571661 -0.73848552
0.94318843 0.62555039 -0.72217119
0.86815977 0.95878398 -0.70901412
0.55238932 0.2386374 -0.68659222
0.26429299 0.25970209 -0.68049347
0.26287779 0.26153061 -0.68924969
0.93708229 0.86775827 -0.6719504
0.89175433 1.060352 -0.67445213
0.97927803 1.121425 -0.66715372
0.80075431 0.43709981 -0.63415468
0.73603559 0.2494802 -0.62191838
1.010609 1.0802619 -0.61424142
0.96891558 1.077981 -0.5878545
1.1246721 1.170175 -0.55435222
1.1530581 1.1667809 -0.53796607
0.74360621 0.40560549 -0.50483698
0.74118751 0.40200859 -0.49808159
0.89651608 0.31449789 -0.4750112
0.95054668 0.3194527 -0.47973049
1.000151 0.3274695 -0.46971041
0.75407308 0.38146919 -0.4508056
0.26148629 0.026357809 -0.39211711
0.2466282 0.034072559 -0.39706939
0.77777702 0.725389 -0.39441729
0.9020772 0.723607 -0.39437491
0.80436438 0.87237167 -0.3853637
1.1849689 0.40351599 -0.37044179
0.77494729 0.7188161 -0.37429011
1.1042709 1.0887771 -0.36346477
1.123692 0.72418332 -0.3512136
0.86595118 0.74531311 -0.35697219
1.102347 1.089234 -0.35047951
1.102695 1.091309 -0.35083711
0.88414937 0.72981501 -0.3449671
1.075767 0.87543118 -0.34397161
0.98235792 0.73087811 -0.3394655
1.348774 0.63428187 -0.32085949
0.96179229 0.73702198 -0.32356539
1.30784 0.77542311 -0.32144091
1.0696549 0.88799888 -0.32318631
1.0784529 0.88980979 -0.32794201
1.077316 0.89050114 -0.32364815
1.07623 0.89112163 -0.31201059
1.088027 1.072274 -0.30123469
1.148234 0.71586877 -0.29750299
1.1513751 0.71833599 -0.29913881
1.31672 0.83949822 -0.29155651
1.232422 0.86962217 -0.29586881
0.87099868 0.89310467 -0.29541919
1.0182821 1.062389 -0.29840091
1.023838 1.064598 -0.29793081
1.079312 1.072086 -0.29658729
1.1362838 0.72425061 -0.28260723
1.1412416 0.72194254 -0.28433526
0.92930949 0.74482679 -0.28796259
1.317646 0.8414408 -0.2827808
0.2333191 0.05640959 -0.27576101
1.276379 0.66249788 -0.27613661
1.129949 0.7252298 -0.2780652
1.1405885 0.72504056 -0.27950764
0.91027039 0.75641972 -0.27524379
1.402615 0.8438049 -0.2752246
1.392051 0.85653132 -0.27012241
1.227908 0.8723563 -0.27790859
1.126181 0.72718608 -0.2677713
1.112702 0.73240978 -0.26034471
1.309042 0.84629941 -0.26199189
1.323023 0.88816983 -0.26760399
1.323511 0.89171791 -0.261592
0.56736088 0.29031011 -0.25866979
0.37673911 0.084254868 -0.24466839
1.062538 0.30166069 -0.24631371
1.285247 0.71399403 -0.24537933
1.1475101 0.89756072 -0.2446744
1.2746711 0.71544397 -0.23701975
1.145003 0.90863669 -0.2325936
1.3171279 0.95907128 -0.23147561
1.128606 0.90774047 -0.2268025
1.319297 0.9641009 -0.2284264
1.313817 0.87972921 -0.21643829
1.988162 0.60208911 -0.20066179
1.248718 0.64748371 -0.209783
0.64394861 0.079184011 -0.1982778
1.0972821 1.03037 -0.19493181
1.3730586 0.85742247 -0.18530354
1.729635 0.62287402 -0.17988621
1.462824 0.87029558 -0.1764403
1.456179 0.87406552 -0.1672532
1.645795 0.64168859 -0.1443949
1.961431 0.79480428 -0.1436926
1.674877 0.80320263 -0.14673489
0.99435443 1.106974 -0.14091919
0.51764601 -0.01041034 -0.1323407
1.925436 0.6291917 -0.1336755
1.657591 0.81383282 -0.1314411
1.900707 0.6305328 -0.1236476
1.679104 0.84014738 -0.1229904
1.0539809 0.4650678 -0.119497
1.890256 0.65002018 -0.1180657
1.9029239 0.65083981 -0.099086463
0.546547 -0.0081016012 -0.085274883
1.3887939 0.61631262 -0.06039238
0.56819588 0.0035356111 -0.048322439
1.133087 0.58577508 -0.037296671
0.83193469 -0.070628889 -0.02699355
0.60602349 0.0019991221 -0.027299911
0.57758582 0.004238911 -0.018051179
0.74260038 0.01495 -0.01302264
0.3375372 0.23663551 -0.0080508236
0.58492023 -0.0060127708 0.0087018888
0.74008828 -0.061103571 0.019206731
0.7799117 -0.066166259 0.01011842
0.58255631 -0.01250422 0.017096009
1.948424 0.49965689 0.01092903
0.57866257 -0.01082381 0.02741798
0.56701142 -0.0049640308 0.02726181
0.58111352 -0.0046859891 0.02885285
0.59007329 -0.0094546359 0.02874163
0.82306093 0.17942441 0.029486321
1.920946 0.62873548 0.0207533
1.918316 0.63179588 0.02635435
2.106369 0.99477887 0.02489662
0.5817256 -0.0099639222 0.034208331
1.635237 0.59163636 0.035705447
2.113802 0.98942798 0.035514209
1.720331 0.72996807 0.04304453
0.58264321 -0.01888049 0.068722457
1.881652 0.53015453 0.065335803
1.90528 0.52049518 0.079576991
0.58212167 -0.050237399 0.085857756
0.5200125 -0.044871371 0.096409157
0.55911243 -0.04501421 0.094035327
1.887216 0.52140421 0.092879184
1.9077461 0.52118123 0.09346088
1.93467 0.73280561 0.1087025
1.639134 0.57826489 0.1180614
0.53535157 -0.053687461 0.13045619
0.23841061 0.070694789 0.1300935
1.9081039 0.74888158 0.13564681
1.889536 0.75538802 0.1530896
1.737179 0.64028209 0.16654231
1.7949719 0.5748533 0.1711392
1.6484675 0.72438788 0.1818957
1.831664 0.78039938 0.2633906
2.1262159 0.94854993 0.2785762
2.082206 0.93042767 0.36589739
0.1313114 0.042957611 0.38245109
2.4153819 0.91768527 0.45201829
2.1504669 0.72595841 0.4680087
1.797729 0.86303103 0.47802019
1.8664401 0.86214131 0.51905477
2.4685471 0.85186559 0.5736115
1.8386281 0.8876425 0.58652002
2.1943669 0.73226207 0.64118987
1.827893 0.79533643 0.66260147
2.232816 0.80234748 0.67425263
1.800878 0.80369991 0.70042682
2.2919581 0.68327463 0.74529219
2.0748529 0.66541338 0.780994
2.455466 0.68757081 0.7888394
2.1875529 0.78614098 0.8072558
2.225168 0.64754063 0.85060197
1.979269 0.76407307 0.91217202
2.4135599 0.01966868 0.94514197
2.466063 0.01549555 0.9980486
2.2301941 0.55054909 1.079724
2.2171049 0.47500831 1.094149
1.811978 0.53760749 1.115113
2.633852 0.1043223 1.141692
2.625217 0.1848615 1.149323
2.63518 0.1839669 1.14494
2.3291409 0.51639289 1.159434
1.848321 0.67223328 1.1531971
2.2222099 0.53787088 1.171038
2.6601729 0.056795079 1.182637
1.939901 0.40948331 1.195832
2.0812559 0.51302731 1.193288
2.7165179 -0.03409981 1.203091
2.312094 0.52661413 1.202231
2.640866 0.054009382 1.224606
2.1439021 0.48543149 1.24887
2.125387 0.4974753 1.247278
2.3253131 0.61051607 1.275398
2.70859 0.41894299 1.284978
2.4582429 0.48417729 1.2990071
2.059926 0.48228949 1.311395
2.6042731 0.56997597 1.372874
2.635345 0.55505723 1.3949521
2.5807531 0.069352783 1.448558
2.496783 0.51197708 1.473115
2.5703149 0.076681577 1.49544
2.5402529 0.52232581 1.518043
