# .PCD v0.7 - Point Cloud Data file format
VERSION 0.7
FIELDS x y z
SIZE 4 4 4
TYPE F F F
COUNT 1 1 1
WIDTH 133
HEIGHT 1
VIEWPOINT 0 0 0 1 0 0 0
POINTS 133
DATA ascii
1.751603 -1.592935 1.646235
1.898944 -1.640942 1.725911
1.910605 -1.7877131 1.736166
1.8240891 -1.634425 1.736555
1.859429 -1.7777129 1.754578
1.891525 -1.782692 1.769864
1.846579 -1.681602 1.762158
1.893231 -1.794315 1.774393
1.9275399 -1.63299 1.775699
1.930429 -1.630982 1.777047
1.8059371 -1.5122629 1.772649
1.809375 -1.50697 1.770537
1.881496 -1.810205 1.789011
1.89117 -1.80748 1.790386
1.719021 -1.796247 1.7918561
1.90688 -1.524664 1.7938679
1.857435 -1.430696 1.793303
1.884727 -1.828814 1.806337
1.916362 -1.820551 1.8042819
1.9050961 -1.815166 1.806307
1.896324 -1.799253 1.800096
1.937222 -1.825192 1.8192379
1.586831 -1.806811 1.811933
1.890308 -1.771165 1.811435
1.842908 -1.580314 1.81854
1.933206 -1.8333189 1.8285559
1.866045 -1.509048 1.833635
1.849165 -1.461213 1.831542
1.818706 -1.536409 1.844867
1.860883 -1.543067 1.854262
1.8738641 -1.4953229 1.855323
1.838838 -1.472376 1.851707
1.842766 -1.46113 1.855517
1.881204 -1.762115 1.864163
1.868242 -1.517819 1.860577
2.0147071 -0.3616437 1.869786
1.865219 -1.844679 1.872525
1.9163491 -1.396239 1.893388
1.924283 -1.401929 1.903931
1.878435 -1.31028 1.900263
1.827768 -1.507805 1.9236341
1.922246 -1.323212 1.924661
2.1182971 -1.10102 1.92919
1.927027 -1.330219 1.937493
1.4384429 -0.18797851 1.938808
1.915856 -1.288846 1.9421099
1.811378 -1.8314919 1.965248
1.921379 -1.255654 1.962873
2.1504841 -1.1186121 1.9680181
1.924527 -1.422611 1.971267
2.096483 -1.172387 1.9708281
1.926604 -1.203094 1.98069
1.896862 -1.201246 1.9947309
1.894842 -0.5373742 2.0084479
1.9126199 -1.128849 2.011307
1.9244519 -1.090975 2.0285611
1.957652 -1.302636 2.033381
1.929068 -1.0891401 2.0314839
2.211184 -1.174495 2.0538859
1.920747 -1.236294 2.0642071
1.946972 -0.2709924 2.0613279
2.241483 -1.241498 2.07375
1.948413 -0.93233508 2.0784149
1.909398 -0.94824362 2.085139
1.936363 -0.92572838 2.082278
1.9245545 -0.92875236 2.0956259
1.931255 -0.93798321 2.1007609
1.647471 -0.2143198 2.1086669
1.909099 -0.88052392 2.112309
1.4182431 -0.65569061 2.1409831
1.777953 -0.35639209 2.155391
1.591262 -0.34582451 2.157774
1.774447 -0.024470771 2.156153
2.069262 -1.440828 2.1629591
1.749887 -0.27850181 2.168046
2.166054 -1.052088 2.175456
1.88745 -0.27318811 2.172359
1.9206001 -0.67119962 2.1855731
1.90918 -0.66392958 2.183569
1.780853 -0.54284412 2.1825981
1.8517359 -0.35249129 2.1822381
1.743065 -0.1229297 2.183192
1.67805 -0.35417229 2.1957591
1.80602 -0.31226301 2.1911421
1.747027 -0.15906531 2.1948421
1.8029341 -0.81624353 2.2062581
1.8106821 -0.70290983 2.203898
1.7286119 -0.35794961 2.2057121
1.770999 -0.2840037 2.20257
1.7781579 -0.2828261 2.2126181
1.60393 -0.3166827 2.22663
1.878152 -0.3661834 2.2396979
1.770438 -0.56397742 2.248049
1.9052531 -0.52013671 2.2449839
1.721121 -0.1226909 2.243428
1.785904 -0.55464429 2.2510259
1.809967 -0.55089623 2.2533901
1.826279 -0.54830283 2.25317
1.835465 -0.34788409 2.2529449
1.869904 -0.29704601 2.2531421
1.610006 -0.24944641 2.257566
1.4792629 -0.37965971 2.267467
1.493611 -0.36273241 2.2630031
1.746977 -0.34938389 2.268697
1.594672 -0.2405031 2.263438
1.4120589 -0.030210599 2.2668209
1.905996 -0.72224319 2.276051
1.829277 -0.55109662 2.272784
1.409099 -0.51889169 2.2715139
1.448514 -0.33231151 2.27246
1.7375 -0.23591369 2.279211
1.74722 -0.2308488 2.283396
1.772938 -0.23832721 2.284878
1.46658 -0.15116 2.2880499
1.465813 -0.083156548 2.2944651
1.67029 -0.89946598 2.3040209
1.622419 -0.37983409 2.305239
1.628986 -0.2490017 2.3027179
1.45021 -0.183302 2.3011191
1.477059 -0.14776041 2.3049769
1.4752409 -0.062702984 2.305331
1.460416 -0.68899482 2.3144801
1.454633 -0.078373693 2.3152111
1.625504 -0.37671521 2.3228829
1.6459481 -0.37900361 2.3266361
1.570063 -0.29035479 2.335192
1.608174 -0.1208532 2.335619
1.410257 -0.3225607 2.351089
1.422377 -0.32241279 2.371484
1.669414 -0.3915354 2.4216039
1.460624 -0.41949651 2.4300449
1.586535 -0.39519501 2.4422691
1.83268 -0.37799159 2.449405
