# .PCD v.7 - Point Cloud Data file format
VERSION .7
FIELDS x y z
SIZE 4 4 4
TYPE F F F
COUNT 1 1 1
WIDTH 1661
HEIGHT 1
VIEWPOINT 0 0 0 1 0 0 0
POINTS 1661
DATA ascii
2.344323 1.678465 -1.60051
2.218712 1.531211 -1.369139
2.222448 1.723543 -1.68031
2.616339 1.218664 -0.4543411
2.590852 1.193864 -0.4416868
2.20579 1.692767 -1.648121
2.678421 1.203378 -0.4121136
2.207949 1.668727 -1.631112
2.829953 1.12571 -0.2418805
3.247522 0.9124206 0.4137029
2.904996 1.195765 -0.2728088
2.255491 1.650052 -1.601914
2.963804 1.153822 -0.3410727
2.972147 1.23144 -0.4316472
2.575373 1.501471 -1.220315
2.965031 1.150845 -0.3435596
2.982929 0.2271366 -2.960268
2.276739 1.683306 -1.631214
2.927476 0.2002959 -2.868014
3.309793 1.258681 -0.5512182
2.785465 1.501539 -1.147844
3.352324 0.9965769 0.1350011
3.038458 0.9554072 -2.490582
2.567874 1.472478 -1.195589
3.328481 1.053061 -0.02172858
3.424915 1.225846 -0.409507
2.610279 1.53159 -1.240147
2.858045 0.8008391 -2.233803
3.361991 0.9520158 0.2715827
3.245045 0.2774993 -3.095699
3.219725 1.22626 -0.4937524
3.005119 0.9489771 -2.466374
3.232206 0.275337 -3.070735
3.124929 0.5765414 -2.787796
3.264506 1.278874 -0.5539906
3.442061 1.152578 -0.2901166
3.345069 1.203011 -0.4112013
2.876292 2.150722 -2.694853
3.518586 1.336745 -0.8520708
3.379903 0.4862842 -2.878146
2.969581 1.750207 -2.05894
2.894911 1.895495 -2.309872
3.110676 1.597239 -1.679207
3.335514 1.420644 -0.9034266
3.260927 0.2617308 -3.022274
2.667431 1.893159 -2.405352
2.922364 1.713604 -2.024565
2.810916 2.088693 -2.624651
3.928043 0.8030937 0.5699679
3.254978 1.369558 -1.027523
3.021904 1.79422 -2.086851
3.391172 0.5921586 -2.809665
3.389854 0.674419 -2.79562
3.533498 1.112341 -0.1545337
3.559654 0.9387452 0.3037721
3.247848 1.120172 -0.3175752
2.137691 0.5317138 1.244158
3.174349 1.245834 -0.4727185
1.922411 1.626227 -1.46705
2.894674 0.8492572 0.5126998
3.172555 1.27303 -0.5601599
3.528239 1.109603 -0.1507605
3.423055 1.214792 -0.3887936
3.394991 1.190215 -0.4163075
3.543696 1.202428 -0.3226945
3.523591 1.194633 -0.3304781
3.431701 1.224913 -0.4171062
3.563435 0.837665 0.5666776
3.496943 1.189831 -0.3316585
2.889299 0.8445994 0.5173293
3.402918 1.194088 -0.4170887
2.907351 0.8308013 0.5884933
2.184322 1.679842 -1.636819
2.742415 1.469949 -1.131585
4.146183 1.130307 -0.1874463
3.631852 1.283091 -0.5211897
3.591753 1.256023 -0.5199886
2.31424 1.590184 -1.520096
3.16698 1.475011 -1.003146
2.346526 1.662444 -1.571918
4.153614 1.133102 -0.2012787
3.807976 1.291183 -0.5424356
4.200168 1.125075 -0.2082066
2.089991 1.752522 -1.884493
4.323699 1.133112 -0.2334903
3.437647 0.8197052 0.6026192
3.748991 1.399738 -0.8505033
2.630254 1.691927 -1.74879
3.530253 0.8270646 0.6662009
3.204099 1.451816 -1.286914
2.660577 1.743385 -1.802625
3.071511 1.09653 -2.00634
3.205781 1.453257 -1.288539
4.214726 1.268832 -0.517961
3.997704 1.311006 -0.6259978
3.115898 1.366045 -1.892875
2.134451 0.6270602 1.027443
3.234954 1.469074 -1.30251
3.861937 1.371775 -0.8063825
3.609258 0.8884906 0.4408532
4.187298 1.319882 -0.6697683
3.602353 0.8755575 0.4311174
4.375496 1.251998 -0.5707518
4.134683 1.295875 -0.6599604
2.484551 0.7182042 0.8030169
3.692334 1.439897 -0.9504969
2.11203 1.474032 -0.9325185
3.024581 1.201767 -0.3478324
3.370387 1.066316 -0.08738916
3.587099 0.8576416 0.5109415
2.978078 1.22862 -0.4364516
3.589157 0.8619635 0.5188296
2.902267 1.144827 -0.2243572
1.461633 1.524661 -1.387694
1.467516 1.531639 -1.394227
2.099594 1.444305 -0.9144841
1.47282 1.504364 -1.366876
1.468978 1.580583 -1.428206
3.370362 1.010741 0.1403073
1.676808 1.526174 -1.270725
1.480494 1.522943 -1.373152
1.677406 1.498033 -1.257318
3.325429 1.011747 0.104777
2.094859 1.431935 -0.8948277
1.500251 1.681923 -1.59835
1.640138 1.569436 -1.370534
1.641186 1.571633 -1.369021
1.646095 1.586498 -1.373737
3.327017 1.058995 -0.0290087
1.502347 1.664392 -1.579763
3.004769 1.185825 -0.348532
3.342014 1.059276 -0.02414281
1.692672 1.652739 -1.602905
1.78985 1.601705 -1.449147
3.375236 1.136005 -0.1880736
1.68378 1.597281 -1.541329
1.549827 1.673104 -1.764566
3.183911 1.245386 -0.4515663
3.264709 1.25328 -0.5301948
1.398663 1.830999 -1.968222
2.059579 1.592947 -1.487976
2.05611 1.59533 -1.489263
1.969744 1.698081 -1.737509
2.058821 1.616452 -1.50328
1.551788 1.679208 -1.759568
3.603211 1.263281 -0.5231441
2.945396 1.455356 -1.057779
2.147619 1.737027 -1.860168
3.602553 1.26807 -0.521892
3.292922 1.374098 -0.8757273
3.157385 1.449569 -0.9785049
3.595684 1.274354 -0.5377846
2.440691 1.572052 -1.325839
1.742449 1.761598 -2.041911
2.288053 1.81937 -1.916132
3.322289 1.407433 -0.8832138
2.248109 1.688862 -1.796109
2.130448 1.692711 -1.826354
4.425591 1.154247 -0.2150078
4.084856 1.20896 -0.4343914
4.375986 1.149606 -0.2256763
3.731926 1.41621 -0.8508501
3.700409 1.44332 -0.9551528
4.350649 1.142977 -0.2296926
4.101238 1.227457 -0.4454796
4.192769 1.305793 -0.6551411
3.505376 1.548715 -1.155944
3.495105 1.542163 -1.154189
3.715682 1.385998 -0.8376232
3.727563 1.375709 -0.8391616
3.473473 1.528206 -1.145498
4.196712 1.309831 -0.6614931
3.429204 1.507012 -1.13132
4.113739 1.273842 -0.6451059
2.42748 1.933817 -2.336133
3.885293 1.602116 -1.106446
2.869026 1.779233 -1.848932
4.482837 1.238889 -0.4172194
2.41156 2.077719 -2.399845
5.580953 -0.3066254 -0.8861542
5.563991 -0.05000162 -0.8326302
1.545904 2.073436 -3.472385
3.103418 1.652261 -1.880265
5.080495 1.11851 -0.07370733
4.456676 1.2188 -0.4307326
1.522267 2.000742 -3.367495
5.630931 0.4348602 -0.2509713
3.405154 0.4953098 -2.939523
5.395025 -0.4314575 -1.722128
1.462423 2.256497 -3.265592
5.513493 -0.1780627 -1.086585
1.474205 2.333138 -3.351508
1.475673 2.376078 -3.403826
5.398785 -0.1331595 -1.554113
1.864929 1.919087 -3.672958
2.389478 2.043672 -2.355609
3.013982 1.764054 -2.188057
3.488382 0.9213647 -2.427196
3.573466 0.9667727 -2.370811
5.394941 -0.1504803 -1.557419
3.10727 1.821819 -2.323507
1.843527 1.837608 -3.550918
3.49266 0.9244504 -2.426173
1.738557 2.081944 -3.45585
3.618756 0.6615017 1.00746
3.920333 1.01802 0.1154033
3.820214 0.9106929 0.3997814
3.996302 1.062092 0.1446907
3.779392 0.882859 0.406516
3.699471 0.7005178 0.8820153
3.660712 0.6869622 0.8404267
3.866172 0.9173046 0.3991255
3.929711 1.025129 0.08641338
4.035579 1.130403 -0.1555131
4.147389 1.036031 0.194997
3.890247 0.791253 0.7073272
3.951913 0.8551476 0.5445884
4.075753 1.010531 0.1620577
3.904755 0.8180858 0.6770521
4.100047 1.013866 0.1582085
3.880854 0.7858268 0.700496
3.853709 0.8383711 0.5781652
4.035508 0.9537926 0.3652395
4.13588 1.041532 0.1724346
3.944803 0.8414378 0.5244756
4.026768 0.7978473 0.7076257
3.237865 0.9110068 0.3634931
4.027097 0.9746252 0.1325661
4.258616 1.158818 -0.2066596
0.6219878 -0.01184204 0.1356381
2.261016 0.6240011 1.046238
3.894455 0.7877763 0.7130229
4.02177 0.8001447 0.7107084
4.08473 0.8334433 0.5904214
1.125582 0.3334463 -0.1705514
4.165956 0.9085333 0.4354401
4.021033 0.7971657 0.7066074
1.697899 0.6069408 0.09437966
2.905584 0.8271477 0.5908937
4.246511 0.9231861 0.3782158
4.395818 1.156369 -0.196861
4.308993 1.022414 0.1119259
4.577094 1.185038 -0.3311354
1.920946 0.6287355 0.0207533
1.872334 0.8394676 0.4850024
4.002796 0.7666912 0.8000959
4.33325 1.047642 0.1255818
5.185742 1.714431 -1.658777
2.88359 0.8294134 0.59742
2.868035 0.7769378 0.6934769
5.293827 0.3500446 -1.8069
5.332934 0.2651698 -1.633332
1.139465 0.6194108 -0.01040097
4.473239 0.9471037 0.3522753
1.633988 0.5908158 0.1315159
4.791327 -1.156798 0.8067328
3.170129 0.9022509 0.3880643
4.094924 0.892404 0.4540591
4.009761 0.923233 0.3596001
4.111672 0.8488883 0.6082829
3.416484 0.9209338 -2.458748
4.165272 0.9061999 0.4518228
3.517421 0.9221869 0.326444
4.242144 0.8991157 0.4554274
4.240686 0.8960513 0.4559332
3.943722 1.033951 0.09115586
4.294771 0.9085929 0.4218294
4.24696 0.9315054 0.3560431
4.260652 0.9347857 0.3765393
4.309114 0.9519804 0.3912142
4.118618 1.114346 -0.197097
4.30574 0.8846785 0.4805364
3.412307 1.636611 -1.811274
4.268099 0.9294661 0.3432665
4.224334 0.9162802 0.3407087
3.883377 1.277491 -0.6408768
3.926604 1.276478 -0.6482525
4.127479 1.178419 -0.3117712
4.261179 1.159133 -0.2010794
4.176071 1.225219 -0.3616102
4.410422 0.983141 0.2416022
4.006846 1.317662 -0.6212296
4.422921 0.9826068 0.2573126
4.421356 0.9865241 0.2384385
4.07627 1.167786 -0.3606284
2.196398 0.6402452 1.026601
4.246744 1.14597 -0.1909062
1.6071 0.6081051 0.07562429
1.598599 0.6074343 0.084417
4.224396 1.26572 -0.5183697
2.670067 0.7944482 0.6637473
4.590614 1.128466 -0.1189917
3.564828 0.8357289 0.5678949
4.752975 0.8880758 0.5209916
4.479698 1.135542 -0.1424966
4.384931 1.175303 -0.3189617
4.766199 0.8964415 0.5115006
4.635544 0.9906637 0.227898
4.668923 0.9647509 0.2686886
4.633289 0.9874331 0.2343412
4.746225 0.8812026 0.5115647
4.774757 0.8945492 0.5301802
4.567628 0.9591561 0.1396871
4.711125 1.051529 0.188473
4.424511 1.205199 -0.4117158
4.803145 1.018906 0.112533
5.777567 -0.08682478 0.2757377
1.823788 0.6589401 -0.0826422
5.722107 -0.608095 -0.4931663
5.684809 -0.5201976 -0.472736
5.399553 -0.1421799 -1.55267
5.361388 0.7911047 0.6611004
5.145072 0.373269 -2.454553
5.421707 0.8030394 0.6890218
5.509545 -0.0943753 -1.053552
5.775444 0.02828768 0.4200577
4.208251 1.341468 -0.6753872
3.121203 1.65942 -1.901751
3.10058 1.638513 -1.883349
3.49836 0.9131358 -2.308197
3.480019 1.060057 -2.17205
3.413486 0.5598559 -2.918419
3.383333 0.6582792 -2.806589
3.112991 1.654256 -1.892926
3.535114 1.102338 -2.227189
3.486596 1.05775 -2.175801
2.105701 1.43777 -3.751757
3.52179 1.092422 -2.211114
5.493769 0.2557658 -0.9836114
3.386019 0.6752456 -2.792945
5.439209 0.02913916 -1.360714
5.382489 0.2962439 -1.426418
3.059559 1.75821 -2.249816
2.138973 1.535982 -3.972564
5.372856 0.3011713 -1.422144
5.510465 0.6549028 -0.7618027
2.814892 2.147476 -2.815882
1.793038 2.236307 -3.439163
3.134928 1.877935 -2.372538
3.010973 1.712844 -2.192662
5.378687 0.9749835 -1.107056
5.407218 0.5057041 -1.243199
5.383204 0.4520023 -1.373163
5.498049 1.046489 -0.6170308
5.349828 0.2480211 -1.56559
5.56649 0.9909651 -0.4597805
5.333613 0.6907325 -1.264521
2.029417 1.908224 -3.785906
2.028909 1.885694 -3.744892
5.261645 0.2589182 -1.970495
1.992133 1.868506 -3.711369
5.322466 0.6216179 -1.617865
4.142703 1.7807 -2.049244
5.294219 0.7773516 -1.363272
5.365443 1.149547 -1.167619
5.370365 0.9922484 -1.162024
5.247771 0.6271831 -1.820907
5.267035 0.94805 -1.503731
2.04865 2.380572 -3.512727
5.219633 0.755497 -1.88021
5.332717 0.9051453 -1.383832
5.352166 0.9498484 -1.236887
1.91824 2.068505 -3.507607
2.271926 1.660428 -3.889895
2.067385 2.418072 -3.567325
2.287305 1.701454 -3.955672
2.292116 1.701767 -3.967136
5.341413 1.273579 -1.173815
5.268891 0.9475355 -1.501012
5.103007 0.3456258 -2.444718
5.383846 1.162462 -1.171857
2.471317 1.804882 -3.700911
4.897906 0.9881645 -2.095883
5.232002 1.095809 -1.633473
5.131253 0.4259931 -2.43467
5.299222 1.117083 -2.321723
4.457711 0.948276 0.3484687
2.073212 0.7292722 0.7560084
2.896468 0.803073 0.5663778
1.381276 0.6664265 -0.1228898
0.6112862 -0.009773721 0.1346069
3.146976 0.8896627 0.3618125
4.961158 -0.9491518 0.9854292
3.328316 0.9828323 0.05825908
5.03979 1.668764 -1.670709
4.912779 -0.9347439 0.9565846
4.84925 -0.915682 0.9182357
5.403289 0.08832772 -1.522918
4.948657 1.078306 0.2669864
5.521311 -0.3777625 -1.160459
3.309208 0.9681091 0.1649033
1.304041 0.6577674 -0.1029422
5.250264 1.159364 -1.614733
4.535438 0.985288 0.1420874
2.136487 0.5494048 1.243042
4.731183 1.020405 0.1514639
1.287055 0.7124982 -0.2497217
2.026045 0.7556339 0.7146458
1.471084 0.6433537 -0.04550524
2.646379 0.734888 0.7894191
0.5789942 -0.01278656 0.1475976
2.008953 0.5444006 1.262546
3.295281 0.9393623 0.2770436
4.865735 -0.8102891 1.209822
1.600579 0.6086505 0.08197546
1.911097 0.6906279 -0.1020462
1.551394 0.7070155 -0.198184
3.31267 0.9632357 0.2320981
2.433959 0.7168477 0.8225139
4.979956 1.089766 0.04161932
1.544558 0.7100759 -0.191579
4.64105 -0.1995387 1.336307
5.389195 1.004178 -1.10889
5.656782 -0.5619812 -0.7070349
1.950547 0.6714746 -0.1119432
4.879712 -0.6379079 1.099616
1.918316 0.6317959 0.02635435
5.397861 -1.116428 0.7143618
5.365351 -0.6187832 0.9256002
5.356623 1.283636 -1.109331
2.24181 0.5693303 1.181491
1.60052 0.6098791 0.08061486
2.548555 0.5807354 1.164873
4.890614 -0.2561877 1.572207
4.836402 0.2170718 1.369665
1.145003 0.9086367 -0.2325936
2.868154 0.7687441 0.6790597
4.736619 0.4313862 1.412188
2.543474 0.5742718 1.147915
3.559707 0.8114634 0.6231782
3.71829 1.054534 0.457658
3.588816 0.6451953 0.9908855
3.662452 0.8177947 0.6141282
3.582186 0.6352057 1.003385
3.6917 0.8388097 0.5697052
5.483472 -0.151287 -1.582697
5.509689 0.08968453 -0.9770554
5.499182 -0.0705232 -1.111677
5.562527 -0.1800209 -1.09428
6.197927 0.04487665 0.5483503
5.275648 0.1476671 -1.94896
5.556849 -0.04094505 -0.8341969
5.284378 0.03013496 -1.994584
5.691389 0.2309254 0.01698954
5.670506 0.9279753 0.3945614
5.5822 -0.3031245 -0.874743
5.674402 0.3935331 0.02125707
5.694946 0.02038586 -0.1265722
5.670323 0.394814 0.02009558
5.758282 0.4552554 0.3797545
5.380495 0.02795369 -2.032564
5.585288 0.3141749 -0.5520676
5.508825 0.09522699 -0.9740435
5.634728 0.1433844 -0.4324083
5.449909 0.5101546 -1.00605
5.88237 0.07245292 0.1331275
5.988665 0.5692565 1.191931
6.001156 0.4127534 1.057885
5.961518 0.7327664 0.7806005
5.065501 1.111649 -0.05125713
5.908298 0.3211028 0.2878529
4.98303 0.5253571 -3.155192
5.979445 0.5761616 1.189914
5.757046 0.4549712 0.3784657
5.462235 0.730077 -0.9288058
5.12589 0.6252272 -2.357827
5.749473 0.7999908 0.5089918
5.490735 0.8571769 -0.7596154
5.525536 0.498772 -0.7939093
3.386559 0.876025 0.4985864
2.709055 0.64157 1.018489
2.065609 0.5027375 1.440188
1.285812 0.7129185 -0.2416042
2.437246 0.4988968 1.382787
1.276441 0.7167653 -0.2397129
1.075464 1.340817 -0.9671873
2.578437 0.5391883 1.386459
2.446463 0.503584 1.443912
0.931991 0.7767148 -0.9059861
2.412076 0.4890813 1.41161
2.429166 0.4870069 1.409615
2.961808 0.6323854 1.087775
1.08871 0.3191361 -0.1374172
3.446889 0.8126684 0.6064567
2.700454 0.4472262 1.299693
2.950938 0.620616 1.065535
2.952969 0.610651 1.05102
2.884018 0.6187281 1.178607
2.545059 0.5245208 1.315958
2.559461 0.5327909 1.365115
3.017916 0.5981232 1.0849
3.055705 0.6011474 1.168537
2.54799 0.5241181 1.306115
2.967186 0.6320798 1.076561
3.431704 0.8017445 0.5867521
2.704621 0.4545819 1.313624
2.700128 0.4589958 1.315152
3.668648 0.8252063 0.5555863
2.706663 0.432595 1.291554
3.682635 0.8359265 0.5660089
1.679104 0.8401474 -0.1229904
1.975928 0.8424935 0.4916205
1.130178 0.6221929 -0.008337476
4.066889 0.8540159 0.5445907
2.315537 0.08039328 2.276016
4.049402 0.7991508 0.7021244
4.096948 0.8240705 0.313898
2.458718 -0.6270168 2.034599
0.8981219 0.5012162 -1.094673
2.647741 -0.7024627 1.822879
2.715118 -0.6012571 1.97446
4.839437 1.054964 0.1906099
2.303059 0.07631566 2.212525
0.9234255 0.5493525 -1.225407
0.6583186 0.008242239 0.07799639
1.139423 0.6771873 -0.131475
2.714087 -0.4344084 2.015262
2.745724 -0.2177783 2.08606
0.9629173 0.8376203 -1.089039
1.406599 0.7120517 -0.2189261
5.666486 0.7279786 -0.0871863
2.059926 0.4822895 1.311395
2.417344 0.5583376 1.216217
3.337533 0.9026163 0.3834708
2.72904 0.6776221 0.9226554
2.639552 0.6378545 1.009964
2.839661 0.6996663 0.8827394
2.930667 0.7277788 0.716049
1.28869 0.7092331 -0.2453258
1.496918 0.6111922 0.06248341
2.95449 0.7435488 0.7596523
2.964736 0.7422478 0.7679842
1.127479 0.3332302 -0.1747304
1.272901 0.7141227 -0.2343266
1.038896 1.265233 -0.8444819
5.409109 -0.9948436 0.7953918
5.400099 -0.6059203 0.9330297
5.40058 -0.6012929 0.932788
5.429159 -0.814743 0.8744076
4.655053 0.41768 1.353418
5.769613 -1.11717 0.5767446
5.753994 -1.106092 0.5753285
5.878046 -1.151394 0.6130819
5.956199 -1.030478 0.3949775
5.610181 0.5582362 0.1747242
4.768661 0.4258251 1.431347
1.984906 0.7040737 0.8046864
2.054125 0.6928493 0.8336458
2.053855 0.7006198 0.8353377
2.301758 0.7571712 0.7289577
1.697411 0.6576993 0.9780455
1.30601 0.5414729 1.268355
1.31972 0.5359676 1.236736
2.431269 0.7095779 0.7940708
2.198182 0.6394847 1.027695
1.133736 0.6762104 -0.1283685
2.433208 0.717483 0.8264843
1.720782 0.5989877 1.079749
1.308225 0.5361554 1.277144
1.75046 0.5893846 1.130839
2.214653 0.6296061 0.9250054
1.722028 0.600455 1.069031
0.5866114 -0.01747394 0.1583929
0.4519694 0.1560511 -0.3192082
0.7071062 0.09687559 -0.1211496
2.236165 0.6508463 1.002231
2.131632 0.6270409 1.021941
2.084252 0.6427641 0.9974833
1.713723 0.5998317 1.069142
2.429028 0.7092588 0.8056948
2.133349 0.6300777 1.036043
0.9563872 0.8398024 -1.090249
1.317416 0.3920919 1.472546
1.650034 0.4862721 1.357475
1.782163 0.5144751 1.262308
1.282874 0.7165655 -0.2448121
2.00301 0.5385618 1.263537
1.646675 0.4983619 1.355797
1.649826 0.491949 1.371494
1.16898 0.4081786 -0.4178299
1.234401 1.178689 -0.457368
1.484627 0.6398986 -0.06847062
1.025089 1.269914 -0.7534817
0.9013375 0.5591571 -0.8184355
1.501726 0.6354676 -0.1226513
0.8745003 0.5635991 -0.8062627
0.8907305 0.6523917 -0.8035982
1.158499 0.4052475 -0.4046456
1.151605 0.4051992 -0.400274
1.184969 0.403516 -0.3704418
1.185845 0.4089746 -0.4207829
1.380476 0.6684994 -0.1256348
1.145393 0.4068982 -0.3936688
1.192764 0.4091556 -0.4262128
1.374814 0.8589658 -0.1880761
1.13772 0.4051796 -0.3921927
1.207263 1.182204 -0.46808
0.9128871 0.8257166 -0.7384855
0.8868223 0.560397 -0.8110649
1.356691 0.6764821 -0.09497692
1.42821 0.7021344 -0.2387269
1.993418 0.7621959 0.6361909
2.122222 0.7867295 0.6757583
2.181706 0.7639858 0.7240022
2.181591 0.7649879 0.6817484
2.190726 0.7468576 0.7433619
0.9035475 0.6014151 -0.9104812
5.73834 0.2814892 0.261193
5.745216 0.282245 0.258356
4.829669 -0.4156075 1.170877
4.808839 -0.2152495 1.495547
5.782816 -1.119327 0.5788387
4.769398 -0.2252037 1.504038
4.595771 -0.1931024 1.32891
1.778956 0.5052713 1.278479
1.371303 0.8558792 -0.182531
1.601869 0.4915879 1.33495
0.8941925 0.6023484 -0.9136862
1.462824 0.8702956 -0.1764403
0.5676317 0.6623434 0.8680245
1.042127 0.5774002 1.100288
1.204061 0.4784744 1.341395
0.6284565 0.6306471 0.8944278
1.495299 0.635868 -0.1003376
0.7078391 0.5807697 1.058865
0.7176137 0.5808688 1.060376
1.496669 0.6318931 -0.1055364
0.8870643 0.4849751 1.344125
1.287957 0.3870916 1.551459
1.031029 1.078604 -1.110988
0.5046266 0.4964438 1.2562
0.5204163 0.488311 1.23962
0.5143186 0.4706047 1.279507
0.5236522 0.4758736 1.255005
0.9238809 0.686409 -1.115197
0.5291497 0.4659029 1.267735
0.5958534 0.3179785 1.626822
1.077402 0.2231743 2.043757
0.6114217 0.3280115 1.671921
1.633457 0.5922961 0.03773525
0.7344674 0.1863205 1.921598
0.8409336 -0.8725805 2.338048
0.6853977 0.1864345 2.052967
0.5449474 0.3162073 1.705896
2.663399 0.5038805 1.397142
2.286548 0.5456303 1.219692
1.480102 0.6396923 -0.07233685
1.85914 0.6144851 1.052685
1.456179 0.8740655 -0.1672532
1.060593 1.358264 -0.9613245
1.78899 0.5680917 1.183321
1.714571 0.597371 1.10879
1.496555 0.6385384 -0.09358966
2.012578 0.5432884 1.264014
1.063595 1.357462 -0.9616681
1.345952 0.3805924 1.491702
1.547894 0.4286831 1.510967
1.819334 0.4619032 1.45384
1.820678 0.4631763 1.437348
1.141336 0.3283128 1.81974
1.142724 0.3268283 1.800589
1.394863 0.3078666 1.833154
1.40721 0.2833788 1.845325
1.401918 0.3052084 1.819558
1.397943 0.2635679 1.951137
1.413144 0.2931218 1.791188
1.402558 0.2620885 1.943645
1.079393 0.2143169 2.015197
1.231469 0.1876374 2.095436
1.219374 0.1836969 2.089382
0.9250824 -0.7481183 2.512974
0.9590205 -0.7381929 2.416048
0.9637685 -0.7157484 2.394659
0.9997388 -0.4493038 2.392747
1.913789 -0.9208487 2.087589
1.507622 -0.3554204 2.295696
0.9911584 -0.3130761 2.491932
1.821048 0.095808 2.253801
0.9225917 0.03269909 2.490503
1.480922 -0.3196038 2.307393
2.729528 0.1524557 2.168024
4.68922 -0.2010444 1.373937
4.958497 0.1976684 1.570791
2.732471 0.1532235 2.191738
1.169261 0.4042407 -0.416464
1.637017 0.5909766 0.03367564
3.139857 0.8482756 0.2812921
1.488572 0.63596 -0.08437356
1.152075 0.4028352 -0.3997934
0.972706 0.7701256 -0.7386157
0.979278 1.121425 -0.6671537
1.489164 0.6382774 -0.1012796
0.9370823 0.8677583 -0.6719504
1.000151 0.3274695 -0.4697104
1.14102 0.7254428 -0.2791511
1.136423 0.7245603 -0.2824915
1.140101 0.7207357 -0.2859471
0.9432537 1.229967 -0.5619059
1.156658 0.3305649 -0.1897203
0.9689156 1.077981 -0.5878545
1.130702 0.3399611 -0.1937405
1.307001 0.6575602 -0.09395506
1.133944 0.7261642 -0.282216
1.129949 0.7252298 -0.2780652
1.010609 1.080262 -0.6142414
1.14751 0.8975607 -0.2446744
0.9810597 1.17668 -0.5447261
1.138484 0.7220275 -0.2831142
0.9808108 1.175077 -0.5422871
1.147709 1.121095 -0.3128855
1.140157 0.7246382 -0.2798642
0.9340401 0.2582833 -0.3675522
1.191553 0.6871744 -0.1751486
1.128191 1.126407 -0.3095862
1.146774 0.6747706 -0.1421428
1.128606 0.9077405 -0.2268025
1.077382 1.090955 -0.1914014
0.9315846 0.2580492 -0.369595
1.077417 0.7067707 -0.3898426
0.7879801 0.4240746 -0.4930587
0.8709987 0.8931047 -0.2954192
1.414006 0.2810977 1.844862
0.7355611 0.5820037 1.048823
0.705393 0.5326115 1.172345
0.4976179 0.4671198 1.334711
0.9756371 -0.7263168 2.390111
0.6320133 0.1872043 2.092824
-0.7259935 0.2466172 1.793007
-2.19135 -0.5478046 1.22335
0.5175495 0.4841342 1.254232
0.7085262 0.1802609 1.994117
2.929776 0.8884077 0.2148837
0.8976221 0.02764891 2.464084
-1.601218 0.1263675 -0.5818266
-1.435152 0.1445268 -0.621941
-1.559037 0.1397635 -0.598768
-1.515175 0.14279 -0.6055264
-1.580358 0.1394306 -0.5976076
0.9096321 0.0285164 2.429057
-1.580194 -0.0932363 -0.6774758
-1.547001 -0.08923899 -0.688985
-1.828696 -0.1107938 -0.6334586
-1.773403 -0.3330871 -0.7272071
-1.823437 -0.3492804 -0.726123
-1.407872 0.1454725 -0.6169744
-1.790903 -0.3324261 -0.724234
-1.915898 -0.3515537 -0.7024089
-1.687914 -0.1000444 -0.6509558
-0.1776391 0.04242609 2.301395
2.99388 0.8897743 0.2319766
1.337834 0.6929471 -0.2991241
1.24727 0.3886529 -0.4631045
1.176404 0.4021322 -0.4189652
1.112702 0.7324098 -0.2603447
0.8263869 0.4207615 -0.4414741
2.799074 0.8793563 0.3263263
0.8110819 0.42577 -0.4350884
0.8659512 0.7453131 -0.3569722
0.6980258 0.01614132 0.01107118
0.7426004 0.01495 -0.01302264
0.7133892 0.004023744 0.03485144
0.7160618 0.01624488 0.01550123
0.6439042 -0.003155273 0.1035819
0.6657551 -0.00399449 0.09188461
1.151983 0.4161702 -0.4225368
1.302713 0.7066303 -0.2675113
1.313817 0.8797292 -0.2164383
1.15526 0.3316189 -0.2102277
1.307981 0.6612106 -0.07921528
1.313043 0.6581379 -0.1162877
1.298482 0.6611247 -0.08728368
1.151375 0.718336 -0.2991388
1.164068 0.7137218 -0.3079806
1.249042 0.6962301 -0.3754412
1.148234 0.7158688 -0.297503
1.350634 0.645503 -0.1289788
1.083077 1.189681 -0.4672265
0.8512272 0.3564556 -0.4854385
0.8667387 0.4341883 -0.4685682
3.379638 0.7886056 0.4745528
0.3375372 0.2366355 -0.008050824
-0.1766271 0.02343146 2.348854
2.990154 0.8897208 0.2323533
-1.601569 -0.4177565 -0.5023286
-1.531513 -0.3956946 -0.5289567
-1.356452 0.1364922 -0.6156145
-1.485992 -0.1666928 -0.4783542
1.399071 0.6592066 -0.1504632
5.143956 -0.7026162 0.6053189
4.725566 -0.873897 0.8130475
4.904974 -0.5071222 0.7772609
4.915585 -0.5125977 0.796192
3.678072 0.6262508 0.9852287
1.142382 0.7231494 -0.2827234
1.126181 0.7271861 -0.2677713
1.04474 0.2510279 -0.3598816
1.169745 0.3334894 -0.2198701
1.172592 0.6708562 -0.1625048
1.169506 0.6666854 -0.1640733
1.17425 0.6681269 -0.168877
0.9823579 0.7308781 -0.3394655
0.9102704 0.7564197 -0.2752438
0.9293095 0.7448268 -0.2879626
3.136187 0.8703771 0.2964398
-0.9583118 0.7015995 -1.340117
1.239994 0.4742162 1.204666
1.226819 0.4719604 1.268808
1.07202 0.6111941 1.067074
0.6194908 0.6500763 0.8009423
0.6309372 0.6466761 0.7809715
1.164001 0.3229113 1.761261
1.118585 0.3366714 1.890017
-0.03510841 0.02469801 -0.1299632
1.000556 0.1598862 2.020263
0.513764 0.4903832 1.253274
2.504241 0.906583 0.240964
0.6216361 0.3304018 1.663151
0.7523423 0.2999383 1.477004
0.9829448 0.03856984 2.271338
0.3297488 0.3934504 1.514624
0.3946758 0.4114625 1.422459
0.7551215 0.3031778 1.461059
0.5919417 0.1917594 2.145031
-1.101601 0.2161015 -0.1390433
-1.48773 0.7710332 -1.284059
-1.251191 0.4736227 -0.7266005
-0.7787586 0.3481295 -0.702242
-0.9075619 0.357094 -0.6670986
-1.345694 0.2891046 -0.284052
-1.166811 0.2615371 -0.2364729
-1.511839 0.38842 -0.5076844
-1.434345 0.3858998 -0.5346751
-1.100148 0.2805307 -0.2708324
-1.609486 0.1768717 -0.645031
-1.443982 0.04422286 -0.3872174
-1.461429 -0.1703369 -0.4751326
-1.461683 0.04976979 -0.3722431
-1.47091 -0.1862116 -0.4425468
-1.668833 -0.633424 -0.5848009
-2.078678 0.8058404 -1.187508
-1.624655 -0.6224689 -0.6189501
-1.70182 -0.6352522 -0.5983649
-1.852252 -0.8554312 -0.6602573
-1.4228 0.3837509 -0.5227516
2.874661 0.8153138 0.4792649
2.7625 0.8182577 0.45055
0.927179 0.2573119 -0.3714833
0.9617923 0.737022 -0.3235654
2.422478 0.86831 0.3396907
2.863925 0.7950544 0.4903389
2.889333 0.80289 0.4899632
2.770333 0.8093084 0.4763298
2.859003 0.798345 0.5098825
2.561066 0.8424241 0.4229068
2.56781 0.8424179 0.4170518
2.759269 0.8200135 0.4541063
2.566551 0.8482732 0.4331031
3.497111 0.5740124 0.8552283
2.954604 0.7235215 0.6780587
2.950681 0.725959 0.7052496
2.950747 0.723735 0.6991961
2.543245 0.7520162 0.6526445
2.565036 0.7673428 0.6020564
2.552552 0.7564117 0.6429129
2.547996 0.771269 0.6184603
2.552137 0.7605284 0.664462
2.824092 0.6989805 0.7524123
2.079752 0.8009007 0.5893337
2.186142 0.7574043 0.6601143
3.033617 0.5787324 0.9768406
3.018688 0.5747455 0.9404538
3.041545 0.5817432 0.9784094
3.036375 0.5771157 0.9745582
3.040044 0.5747636 0.9791691
3.487218 0.5725923 0.8696479
2.007243 0.7658175 0.617632
2.658133 -0.2395562 0.8818767
2.084405 0.7348757 0.7429159
2.860763 0.6168588 0.9873455
2.682719 0.615674 1.005676
2.457144 0.6815698 0.8940592
1.053612 0.611257 1.117063
-0.1872645 0.03082106 -0.04035701
-0.2173726 0.0318804 -0.0145527
1.047305 -1.529301 1.949704
0.9360273 0.1522041 2.121147
0.8782166 -0.8595341 2.281338
1.037017 -0.5046641 2.417871
1.019554 -0.4999223 2.418077
0.9464684 0.0322011 2.409542
-1.271053 0.7270911 -1.265145
-1.971408 -0.8946975 -0.6363984
4.220175 0.718613 0.6815857
4.218008 0.717093 0.6731737
5.11309 -0.5479447 0.6541328
5.121638 -0.7424311 0.5635661
3.609599 -0.3748927 0.8414423
5.129991 -0.5162814 0.6769831
3.574216 0.5633357 0.8966497
5.152446 -0.7120017 0.6210418
5.092732 -0.508152 0.6161847
3.633049 0.7829186 0.5115392
3.98912 0.7956104 0.5007882
2.855381 0.6209627 0.9900708
2.636888 0.632723 0.9583727
1.955025 0.7299979 0.7589747
2.631589 0.6339767 0.9735004
2.195992 0.6306552 1.020508
2.192377 0.6313111 1.011595
2.215198 0.6249217 0.9709205
2.198594 0.6248208 1.013799
2.588889 0.5133141 1.117563
2.294631 0.5460164 1.194697
2.683457 0.5096674 1.283545
2.562675 0.524743 1.254705
2.143902 0.4854315 1.24887
2.458243 0.4841773 1.299007
2.669084 0.5121292 1.318379
2.146666 0.5397146 1.21062
2.66827 0.5086497 1.38136
1.753155 0.5297856 1.313436
1.784624 0.5344561 1.293887
1.220119 0.3919465 1.677217
1.924283 -1.401929 1.903931
1.795925 -0.6895469 2.099044
1.858325 -0.2755646 2.218911
3.792879 0.7739165 0.5354041
3.949716 0.7647312 0.5715774
3.951407 0.7678781 0.5816388
3.905028 0.7273954 0.6544633
3.891369 0.7231599 0.6250681
4.212142 0.7117782 0.6644687
3.906386 0.7326134 0.6527348
3.907912 0.7262926 0.6406986
4.225555 0.7208222 0.6862926
2.936119 0.7294821 0.7281943
2.934748 0.7044765 0.8127456
2.814135 0.7004175 0.780826
2.942088 0.7070526 0.8366659
4.677466 -0.8108475 0.7126297
4.709543 -0.8421437 0.7633272
3.486171 0.5528203 0.8422607
3.699184 0.6712602 0.8172656
4.715598 -0.8494764 0.7741489
3.486467 0.560496 0.8759661
3.562753 0.6371889 0.8907958
3.491961 0.5680714 0.8658097
2.902414 0.6335503 0.8959545
3.565598 0.6449805 0.9087015
3.722227 0.3584484 1.282498
5.791012 0.5594549 1.394394
3.881275 -0.412067 1.466933
4.791967 0.3272313 1.666524
4.523167 -0.2232526 1.481584
4.211823 -0.2520794 1.465078
4.58041 -0.1884441 1.378065
4.543306 -0.2186945 1.448283
4.280471 -0.190764 1.320805
4.498659 -0.2230575 1.454747
4.319113 -0.2139364 1.510231
4.301969 -0.2459216 1.474595
4.324185 -0.2182262 1.488423
4.255556 -0.2524856 1.553789
4.542774 -0.2172938 1.456208
4.570665 -0.2196272 1.476299
6.199175 -0.4661937 0.5937988
4.45619 -0.2705884 2.084966
4.189593 -0.2566189 1.54366
4.412178 -0.2102861 1.492398
4.518468 -0.2241019 1.444192
4.43308 -0.2302964 1.461825
4.54572 -0.1955009 1.46353
4.500319 -0.2242893 1.499393
4.507257 -0.2634819 1.365308
4.274523 -0.2531922 1.627622
4.413933 -0.2300782 1.504651
4.389359 -0.2357487 1.472
4.75895 -0.5984857 0.8540142
4.705155 -0.6100518 0.8664836
4.682463 -0.6346966 0.8865612
2.851287 0.626292 0.9926997
2.950893 0.5987179 1.065391
4.387038 0.5555242 1.080966
4.74246 -0.6437137 0.9782172
4.695026 -0.05884206 1.103934
4.567975 -0.2725665 1.099388
2.63518 0.1839669 1.14494
2.625217 0.1848615 1.149323
2.679956 0.5034156 1.288467
4.763944 0.4464606 1.29889
4.956074 0.4524092 1.278254
2.446346 0.4876102 1.36366
4.751647 0.446783 1.271325
4.720683 0.2051605 1.240323
4.696193 -0.3131875 1.310371
4.421585 -0.1870988 1.335563
4.714272 -0.3195055 1.355324
4.175044 -0.2072168 1.386046
4.292612 -0.2846588 1.385132
4.257568 -0.2909634 1.494195
4.67722 0.2956596 1.530565
4.642671 0.3086164 1.551854
4.505447 0.2938172 1.581967
4.012359 -0.3565269 1.592924
4.544479 0.298632 1.54775
4.347156 -0.2839987 1.510862
4.417374 0.2832029 1.578536
4.005696 -0.3772187 1.640523
4.330391 0.2727756 1.588644
4.02891 0.2427368 1.631014
4.072465 0.2419408 1.680385
4.71162 -0.6166083 0.8774449
4.696943 -0.6119125 0.9458563
4.677439 -0.5753219 0.8559504
4.291229 0.5542634 1.112077
4.542785 -0.3118874 1.212922
3.913667 -0.4698094 1.584313
4.637363 -0.2740392 1.027637
4.687207 -0.3479114 1.568868
4.643035 -0.1945455 1.059356
4.376766 0.544993 1.067289
4.38596 0.5557406 1.085214
4.648843 -0.1901933 1.090589
4.734527 -0.4398299 1.363642
2.674623 0.5033747 1.308048
4.67316 -0.3935556 1.050229
4.739641 -0.4479672 1.388543
5.65123 -0.4604416 0.7190172
4.737272 -0.4483396 1.374049
4.721154 0.4392312 1.308477
4.666144 -0.3205586 1.262729
4.573598 -0.2285041 1.215603
4.537078 -0.1843768 1.40425
3.707746 0.3874699 1.401277
4.495063 -0.2000569 1.450176
4.433924 -0.2428205 1.415615
4.624092 -0.2648089 1.528909
4.687192 -0.2513413 1.474717
6.241134 -0.1345106 0.6111884
4.462634 1.425409 -0.9242131
5.499344 0.2271376 -0.9283549
4.486212 -0.2510779 1.361389
3.885831 -0.2525509 1.51588
3.803521 -0.2450528 1.491945
4.2142 -0.2577162 1.476744
4.083433 -0.270201 1.521992
3.883619 -0.2603592 1.546056
4.484659 -0.2771512 1.554338
4.422172 -0.2786415 1.48333
4.586786 0.3033686 1.539012
3.931175 -0.3424172 1.539947
4.339962 -0.3068678 1.479368
4.486805 -0.2904024 1.548984
3.996583 -0.4525731 1.737475
4.483683 -0.3513864 1.55818
3.924013 -0.3371383 1.634777
4.474883 -0.2333278 1.509074
4.101293 -0.2400842 1.548042
4.384631 -0.257461 2.135223
4.255012 -0.2493624 1.549253
4.277228 -0.2251501 1.518642
4.097894 -0.2436324 1.573434
6.199217 0.2466132 0.5821949
4.167715 -0.256976 1.492267
3.961963 -0.2872131 1.623112
4.511796 -0.2707503 2.094411
3.963266 -0.2706719 1.589756
4.271746 -0.2190826 1.543531
3.80726 -0.2371758 1.266387
4.389764 -0.2747578 1.4993
3.942195 -0.2813313 1.582165
4.652265 -0.255735 1.504645
4.345574 -0.2441064 1.531773
4.57624 -0.2441623 1.375652
4.391142 -0.2408543 1.508264
4.300385 -0.248349 1.540944
4.495526 -0.2648747 1.474987
4.272702 -0.2245199 1.546741
3.987293 -0.2778862 1.561028
3.924652 -0.2879506 1.580773
4.042877 -0.2438318 1.635105
4.027277 -0.2762581 1.613861
6.175655 0.04353498 0.5287987
4.436084 -0.2787258 1.533955
4.474112 -0.2273217 1.475378
4.562084 -0.2687995 1.465676
4.658345 -0.2625193 1.537101
6.202203 0.3745502 0.7303689
6.216882 0.3730557 0.7380774
6.213969 0.3702262 0.7388223
6.302696 -0.8321484 0.7803191
5.880497 -0.6725034 1.262709
5.889942 -0.6605521 1.261218
5.587436 -0.6452128 1.388799
5.373087 -0.7576534 1.438643
5.87667 -0.6583358 1.244352
6.293243 -0.8136356 0.7773363
6.165352 -0.5439683 1.096474
5.390241 0.3226953 -1.339263
6.117447 -0.5392113 1.054556
5.566361 0.4717231 -0.5032666
5.565583 0.4684525 -0.501207
5.534267 0.3084719 -0.5480026
5.435194 0.2843798 -0.5588589
3.981476 -0.2794522 1.606529
4.386849 -0.2401548 1.517193
4.280495 -0.3047981 1.66011
4.513365 -0.2577922 1.457155
4.298464 -0.2542341 1.561657
4.624216 -0.2738755 1.649195
4.109096 -0.3154716 1.590093
4.200119 -0.2741354 1.390455
4.432775 -0.2731693 1.509326
3.702648 0.3690226 1.508866
3.97573 -0.2851836 1.634446
4.500713 -0.2712656 1.552229
4.238073 -0.2942648 1.513193
4.070776 -0.3085841 1.525697
3.947888 -0.3195932 1.483049
4.391843 -0.2841742 1.569358
3.886296 -0.3612562 1.720369
4.479323 -0.2751082 1.5536
4.108925 0.2684838 1.737463
4.373953 0.291945 1.681015
4.284838 0.2714921 1.59029
4.506769 0.3087728 1.667237
3.770282 -0.3567708 1.507876
5.618765 0.02932566 -0.4755194
5.515877 0.4644774 -0.5027366
5.546711 0.1313302 -0.6535859
5.622482 0.1458343 -0.4403028
4.458557 -0.2082533 1.506086
4.317197 -0.2221968 1.660813
4.491217 -0.2062401 1.384443
4.72202 -0.1975313 1.418406
4.456753 -0.2071927 1.51517
4.180567 -0.2245648 1.594968
5.487005 0.4489769 -0.5061636
5.590437 0.1397577 -0.4462349
5.582836 0.1395442 -0.4449057
5.615471 0.1451337 -0.4415258
5.468246 0.9523794 -0.4689738
5.622581 0.09014837 -0.4147313
5.626778 0.08712471 -0.4134262
5.617212 0.254997 -0.3988118
5.528121 0.6630937 -0.4308541
5.605136 0.258887 -0.4003707
5.614347 0.2634777 -0.3951254
5.652098 0.3174277 -0.3098169
5.682202 0.02146975 -0.3180939
5.684834 0.01540072 -0.3182904
5.614669 0.3677637 -0.3593223
4.793257 -0.207242 2.039875
4.759421 -0.2111696 2.084246
4.503017 -0.2261082 1.532705
4.741021 -0.202955 1.403436
4.117527 -0.2840574 1.945462
4.802969 -0.2538716 1.582894
4.408134 -0.2317856 2.025612
4.409178 -0.2148566 1.552766
4.118603 -0.2902902 1.943179
4.660007 -0.2526239 1.25667
4.72139 -0.2021783 1.445611
4.635944 -0.188399 1.503169
4.521432 -0.2249489 1.502496
4.424937 -0.2565691 1.868058
4.110343 -0.2712489 1.645115
4.698341 -0.2080242 1.451962
4.497494 -0.2734505 1.551471
4.468836 -0.2244043 2.029774
4.110911 -0.341297 2.107304
4.06561 -0.3611935 2.12555
4.73991 -0.2189796 1.430414
4.118108 -0.2632228 1.553424
4.525001 -0.2714259 1.593201
4.752761 -0.2860452 2.062912
5.988356 0.570397 1.369895
4.786303 -0.2716713 1.933957
4.608176 -0.2580384 1.519955
4.842696 -0.2482046 1.575752
4.802062 -0.2883174 2.083347
5.97677 0.5724244 1.348437
4.465787 0.3126119 1.777803
4.601826 -0.3052488 2.087874
4.798191 -0.2493168 1.593005
4.603297 0.3272319 1.751043
4.24179 0.2770491 1.711414
5.451827 0.4113033 -1.039185
6.049112 -0.6023422 0.9521822
5.077427 -0.214423 1.683239
4.299581 1.60501 -1.57146
6.249482 -0.5255608 0.9346976
5.307933 -0.7321546 1.544364
6.3351 -0.5158577 0.8915848
6.343426 -0.519251 0.9086794
6.309721 -0.2436696 1.02813
6.0389 -0.4889036 0.7981274
5.079381 -0.3430232 1.680023
6.314464 -0.2397826 1.035451
6.345754 -0.5103691 0.903214
5.551147 0.3092694 -0.5480372
4.298603 1.589645 -1.562875
5.494432 0.3116329 -0.9391981
6.245464 -0.2332551 0.9635028
6.174117 0.618166 1.133965
6.188533 0.05380598 1.097789
5.511456 0.3034982 -0.5487985
4.299676 1.582204 -1.556181
6.183832 0.6176504 1.145145
4.355806 1.603956 -1.606254
5.139136 -0.1898642 1.752199
5.285402 0.5725324 1.795985
4.63171 -0.2080883 1.458217
4.323552 -0.2774171 2.020267
5.258631 0.5436953 1.722126
4.340736 -0.2475515 1.598349
5.002372 -0.1751746 2.003039
4.615032 -0.2183077 1.507525
4.612964 -0.215687 1.468726
4.7451 -0.2026751 1.41757
4.205448 -0.2594612 1.608244
4.818044 -0.1768157 1.485885
4.670092 -0.202629 1.989971
4.44456 -0.2684523 2.045033
4.774996 -0.1802488 1.537807
4.221962 -0.2547496 1.647641
4.175294 -0.2604833 1.651417
4.409476 -0.2341165 1.509087
4.575191 -0.2155286 1.428361
4.800213 -0.2039962 1.542881
4.661728 -0.2191043 1.556702
4.702534 -0.3044382 2.091023
4.614462 -0.2314884 1.588778
4.932364 -0.2026458 1.512843
4.057809 -0.4821391 2.140637
4.941961 -0.2326857 1.507002
4.922844 -0.2695779 1.970236
4.201217 -0.3209932 1.890353
4.792478 -0.2441847 1.590053
4.393678 0.3033241 1.94241
4.684752 -0.2694331 1.635532
4.896034 -0.2398605 1.515152
4.583972 -0.3092414 2.037969
4.940539 0.3878945 2.121032
4.728582 -0.3620802 1.770323
4.720891 -0.2544138 1.57557
4.734426 0.3261108 1.680198
5.015853 -0.2667739 2.039955
5.066433 1.116082 -0.07738338
2.798017 0.6030066 1.117893
3.968267 0.92937 0.573284
4.668728 1.018281 0.1337866
4.306005 0.9063634 0.370509
4.211754 0.8626205 0.4511884
4.580369 0.9234608 0.1654653
5.687503 -0.08877571 -0.2815941
5.609018 0.3653077 -0.4139417
5.638205 0.3240422 -0.3115385
5.607339 0.4382431 -0.3286827
5.648554 0.3335648 -0.3093362
5.697885 -0.09041453 -0.2776871
5.744853 0.2161321 -0.2849708
5.662939 0.4226986 -0.2633138
5.65763 0.5411484 -0.2786545
5.696132 0.4489333 -0.2570685
5.645002 0.5255249 -0.236473
4.87824 0.9054158 0.5888186
5.702688 0.02134865 -0.1326576
5.546955 0.09436884 -0.8247756
5.651008 0.1949508 -0.2917357
5.647324 0.4397663 -0.2640952
4.595087 1.59674 -1.277681
5.647947 0.6084364 -0.2604067
4.854448 0.900161 0.5872021
5.665244 0.9144944 -0.2158591
5.657469 0.6111524 -0.2565308
5.565183 0.6006444 -0.3310353
5.690245 0.02925338 -0.1349598
5.698469 0.8118645 -0.1887894
5.726833 0.4079733 -0.2093246
5.694705 0.8861024 -0.1587241
5.532579 0.2856075 -0.7215098
5.03936 0.919948 0.4586315
5.475515 0.2031177 -1.044211
5.849084 0.9814891 -0.2003801
4.59332 1.595444 -1.27784
5.678014 1.031572 -0.1661827
5.599362 0.9026819 -0.2194969
5.78785 0.5959408 -0.0285486
5.502412 0.09082163 -0.9708897
5.754182 0.2428338 0.01658807
5.082969 -0.2499881 1.853123
6.191186 0.3383577 1.148564
4.738406 -0.2964129 1.91965
5.772894 0.5674594 1.554528
5.140485 -0.3404745 1.741038
4.9742 -0.1904152 1.809337
6.172675 0.6584474 1.135593
5.781286 0.5728073 1.569074
4.614215 -0.2969607 1.995511
4.816991 -0.2773152 1.97714
4.462768 -0.3221982 2.083356
6.206354 0.573239 1.192042
6.205864 0.6881152 1.156139
4.279607 0.2949027 1.816584
4.571988 -0.2831529 1.740348
4.554756 0.3161227 1.761959
6.186743 0.5677264 1.168417
5.209372 0.5442429 1.937453
5.460938 0.2606824 -1.105804
5.477516 0.2793943 -1.035029
5.510666 0.4932646 -0.7824022
5.449145 0.4366921 -1.098911
5.401272 0.4813008 -1.233153
5.399642 0.493633 -1.229804
5.207513 0.4381569 -1.896681
5.468545 0.5667136 -0.9339733
5.425854 0.6339247 -1.103014
5.452344 0.6065509 -0.963905
5.202392 0.4356906 -1.891463
5.382783 0.5330369 -1.303436
5.412457 0.6234244 -1.097988
5.311526 0.5617156 -1.483599
5.282465 0.6071091 -1.605584
5.225792 0.5499944 -1.905795
5.210558 0.5143045 -1.91052
5.381482 0.7143437 -1.18804
5.283749 0.6401548 -1.560035
5.504797 0.7631312 -0.7258071
5.315897 0.5921377 -1.513217
5.474535 0.7258913 -0.8180786
5.32801 0.3283082 -1.603429
5.261796 0.5328564 -1.654184
5.226183 0.6009735 -1.536788
5.374954 0.3478505 -1.34798
5.383037 0.3445629 -1.352527
5.211855 0.8570635 -1.702882
5.474008 0.2690921 -1.101854
5.55268 0.2906422 -0.7253812
5.245662 0.7152205 -1.616547
5.337646 0.7002531 -1.441886
5.458269 0.2797904 -1.083734
5.81304 0.07502102 0.107007
5.750925 0.2376723 0.02057419
5.95129 -0.08010183 0.3003232
5.917988 0.3193112 0.2827849
5.910229 1.085902 0.2214107
5.839267 1.082915 0.1799924
5.844261 0.6027161 0.2243621
5.88993 1.100468 0.19278
5.987848 -0.2672357 0.3630897
5.580335 0.9323652 0.6779565
5.576351 0.9371929 0.6780381
5.993516 0.502984 0.4354481
5.826325 1.001159 0.3676471
6.038405 0.03774763 0.479228
5.906888 1.040175 0.3926399
5.926109 1.049758 0.3965007
6.001638 0.5026233 0.4381503
4.87325 -0.3596441 1.946249
5.220106 0.5567017 1.92692
6.288678 0.8226103 0.9373983
6.240073 0.8199307 0.9150279
6.448398 0.06792498 1.293944
6.485278 0.06903626 1.317379
6.305953 0.6143157 1.301389
5.260357 0.6721418 -1.396677
5.466179 0.2772797 -1.029412
5.451514 0.3606589 -1.051525
5.238596 0.9168957 -1.474667
5.447944 0.4296841 -0.9378611
5.470298 0.3611729 -1.05852
5.500206 0.3369354 -0.8942915
5.499289 0.3402086 -0.8928799
5.227091 1.328138 -1.77768
5.289702 0.8915947 -1.427725
5.29196 0.9500022 -1.500892
5.502073 0.5213735 -0.8197708
5.46115 0.7284476 -0.9291112
5.46844 0.3918965 -0.9962366
5.288825 1.248112 -1.674665
5.465332 0.5630625 -0.9335511
5.597353 0.213949 -0.3790976
5.617237 0.215755 -0.3772274
5.309713 1.026145 -1.335243
5.484046 0.5464423 -0.868351
5.457073 0.4375873 -1.014089
5.498711 0.6713523 -0.7576023
3.267189 1.021517 -2.165794
5.435101 0.4321773 -1.094603
5.311008 1.025515 -1.334323
5.271023 1.186258 -1.228312
5.252668 1.4099 -1.582935
5.503359 0.6653776 -0.7584744
5.469809 0.7533306 -0.7073938
5.191001 1.818501 -1.786591
5.236017 1.393274 -1.57177
5.490726 0.7664839 -0.7863487
5.490153 0.7580739 -0.7217588
5.484728 0.7617069 -0.7854101
5.544743 0.6133013 -0.5859008
5.538368 0.771588 -0.7232484
5.500861 0.6691402 -0.7580818
5.46286 0.8928465 -0.870917
5.269331 1.427332 -1.461362
5.337576 1.237084 -1.255615
5.463693 0.9941859 -0.8222177
5.167608 1.738741 -1.694688
5.348215 1.243636 -1.260195
5.50554 0.7623588 -0.7131244
5.454274 0.9906928 -0.8212012
5.592038 0.4297918 -0.3299257
5.301649 1.482797 -1.206578
5.343104 1.296182 -1.088731
5.421172 1.16079 -0.9164425
5.340617 1.476979 -1.189624
5.484503 0.9651965 -0.7052251
5.30351 1.501101 -1.243806
5.809223 0.7609898 -0.01137488
5.58186 0.8349369 -0.5091361
5.385362 1.236523 -1.045464
5.455648 1.131113 -0.5737075
5.585665 0.9969721 -0.4653436
5.665113 0.9171031 -0.2193093
5.559214 0.7820189 -0.3862745
4.484638 1.75154 -2.051179
5.478792 0.8231778 -0.7777035
5.251111 0.7160784 -1.62165
5.369243 0.6107547 -1.547459
5.189018 0.7392282 -1.880044
5.237854 0.6957048 -1.760979
3.362448 0.6047324 -2.868436
5.193588 0.7366762 -1.87182
3.352446 0.6011117 -2.864319
5.386562 0.8709406 -1.162592
5.464873 0.8696638 -0.880443
5.505984 0.2285274 -0.930416
3.318498 0.7037899 -2.819488
5.217453 0.7588121 -1.748866
5.512649 0.08940236 -0.9762256
5.45016 0.8587207 -0.878934
5.401765 0.8712655 -1.173266
5.40452 0.9483598 -1.023214
4.574711 1.789293 -2.118481
3.397949 0.6734736 -2.799038
5.159531 0.7708997 -2.117067
5.181086 0.7796389 -2.138014
5.152427 0.7658265 -2.111468
5.500727 0.1892769 -0.9309184
3.336151 0.5708459 -2.823988
5.341961 1.012133 -1.297964
5.324553 1.059646 -1.243503
5.25609 0.9323632 -1.48396
3.494327 1.084578 -2.207959
5.318433 1.093624 -1.299028
3.389472 0.4709108 -2.900853
3.508169 0.9017667 -2.333527
5.351871 1.118142 -1.317114
3.705354 0.9029492 -2.353359
5.19656 0.5474071 -1.908042
3.499868 0.9202699 -2.369998
3.531419 0.8950581 -2.383357
3.506715 0.9136648 -2.36159
3.381895 0.4796342 -2.936205
5.275216 1.178635 -1.432412
4.990936 1.018206 -2.717272
4.993649 1.022803 -2.717513
5.34959 1.280827 -1.685998
5.278202 1.364133 -1.415122
5.356205 1.448404 -1.093194
5.142234 1.324665 -2.003747
5.242576 1.427038 -1.52855
5.306761 1.503168 -1.24735
5.252634 1.426644 -1.53988
5.141794 1.338554 -2.006522
5.151565 1.336108 -2.00951
5.186354 1.782826 -1.853436
5.100755 1.682384 -1.787578
5.167492 1.731972 -1.696015
5.074032 1.626205 -2.134186
5.177975 1.758748 -1.719469
5.116363 1.679045 -1.934421
5.122155 1.681243 -1.940348
5.12079 1.675801 -1.937142
5.020776 1.795296 -2.199658
5.149354 1.624166 -2.034184
5.477666 0.7309163 -0.8165686
3.269014 1.009904 -2.157505
5.501411 0.9291443 -0.6589943
5.495252 0.7764907 -0.7845041
3.316214 0.6711861 -2.785986
5.328414 0.3296018 -1.602837
3.318564 0.9190069 -2.31193
3.12302 0.5729799 -2.757891
5.382348 0.7505693 -1.204151
5.285843 0.3245027 -1.760516
5.286478 0.3127542 -1.757143
5.278272 0.3719404 -1.733479
5.328691 0.589494 -1.548715
3.337424 0.4966762 -2.905787
5.206421 0.7647906 -1.739212
3.337736 0.7114386 -2.81624
3.389161 0.5578936 -2.900048
3.363994 0.5802417 -2.807808
3.395674 0.5461715 -2.876126
3.388963 0.5558683 -2.899799
3.074615 0.853408 -2.19983
3.174381 0.5877056 -2.749902
4.143581 1.588767 -1.531077
3.387583 0.6550772 -2.812452
3.388491 0.6516632 -2.794096
3.297636 0.7078292 -2.829963
3.528707 0.9453102 -2.489254
3.162883 0.864383 -2.226907
3.527332 0.9420642 -2.481383
3.400829 0.6673369 -2.802394
3.068382 0.8442796 -2.185045
3.045745 0.8700331 -2.243547
5.2996 1.229755 -1.409057
5.29883 1.223191 -1.407792
4.303144 1.6047 -1.571177
3.441188 0.973762 -2.551944
5.155583 0.4583341 -2.318859
3.061038 0.8403272 -2.201879
3.505923 1.047517 -2.185076
3.49996 0.8953156 -2.337906
3.535552 0.9302797 -2.488603
5.126978 0.4384418 -2.434894
5.124032 0.4402179 -2.428266
3.290252 1.052775 -2.721883
3.296604 1.047029 -2.705214
3.296109 1.039807 -2.69007
5.128903 0.4375081 -2.43398
5.23582 0.3393832 -2.150621
5.234379 0.3339562 -2.144012
5.261966 0.9311228 -1.492139
5.265802 0.9367195 -1.48958
5.222291 0.3251321 -2.123481
5.36337 1.237802 -1.148883
5.314816 1.27987 -1.308269
5.138707 0.6292832 -2.37865
5.278239 1.367117 -1.410927
4.814615 1.622587 -1.672092
4.371997 1.751773 -2.014674
5.021659 0.5868937 -2.937007
5.020792 0.5754791 -2.904562
5.016938 0.584993 -2.897597
5.191532 1.437354 -1.916007
5.109274 1.694662 -1.791809
5.184658 1.759599 -1.706314
5.120918 1.567106 -1.982123
5.112705 1.725704 -1.812472
4.976932 0.797954 -3.002029
5.002635 0.9086468 -2.864315
4.781529 1.076447 -2.849946
4.993199 1.829971 -2.205409
4.9353 1.136683 -3.002527
4.307021 1.310778 -4.214352
4.142482 1.411813 -4.589534
4.138319 1.420414 -4.612822
4.147947 1.407181 -4.584074
4.113724 1.474442 -4.68902
4.037074 1.550753 -4.785805
3.279893 0.4663857 -2.920398
3.316993 0.7059637 -2.817264
3.400743 0.667288 -2.818052
3.300339 0.702481 -2.836809
3.404792 0.5658006 -2.894723
3.406647 0.5671245 -2.905975
3.900327 0.9784139 -2.524715
5.111392 0.7510135 -2.303023
3.0813 1.025869 -2.082874
3.10378 0.8756589 -2.226005
4.228679 0.9647054 -2.528533
3.489095 0.926146 -2.434699
5.121695 0.6249656 -2.367594
3.877402 0.9751021 -2.534862
5.078501 0.566837 -2.488292
3.852093 1.700093 -1.896704
5.123549 0.7176989 -2.331326
4.173217 0.9799455 -2.504205
4.871889 1.696799 -1.548265
5.118257 0.8599334 -2.251862
5.080292 0.6149879 -2.560062
3.038892 0.8893762 -2.304058
5.069697 0.6063448 -2.616646
5.129562 1.194288 -2.131812
5.023247 0.5859026 -2.580669
4.084275 0.952428 -2.494453
5.128995 0.6250498 -2.367827
5.145 0.7433796 -2.251302
5.134339 0.6258934 -2.373589
3.859836 1.705522 -1.898073
3.984654 1.695174 -1.889503
5.119085 1.04416 -2.18471
5.079014 0.532267 -2.664388
5.090795 0.5346139 -2.68934
4.805008 1.625926 -1.670256
5.192914 1.445936 -1.675362
5.119347 1.043733 -2.183778
4.11344 1.73287 -1.946553
4.426514 1.011173 -2.568324
5.144732 1.342938 -2.008181
4.330739 1.804098 -2.024878
5.130419 1.302255 -2.103783
4.823645 1.033051 -2.623618
4.358911 1.738654 -2.012529
4.382212 1.75458 -2.018258
5.008188 0.568269 -2.891129
4.374074 1.780604 -2.040793
4.83069 1.036179 -2.637428
5.019823 0.5727311 -2.902716
4.837054 1.14176 -2.559523
4.850389 1.148944 -2.572441
5.12146 1.567695 -1.97757
5.070261 1.26919 -2.290752
5.125262 1.572187 -1.9815
5.055283 1.084587 -2.544075
5.041046 1.075025 -2.529815
5.126395 1.574749 -1.977427
5.070098 1.236665 -2.471577
5.057261 1.228747 -2.466673
4.968703 0.7834104 -3.014014
4.978561 0.7924567 -3.023004
4.941984 0.9658351 -2.990679
4.986359 1.784978 -2.179953
4.911263 1.116759 -2.960121
4.104343 1.374493 -4.472677
4.215441 2.047993 -4.081451
5.374266 -0.1010319 -1.653733
4.254661 2.087804 -4.107027
5.635668 -0.3040374 -0.6080024
5.639908 -0.2939389 -0.606456
3.978737 2.507323 -3.697953
5.442942 0.03022839 -1.360502
5.079373 0.3900193 -2.70483
5.253883 0.07100222 -2.092281
4.78377 1.626855 -3.672
5.353681 0.2542849 -1.566291
5.290095 0.07920644 -1.848465
5.281893 0.332904 -1.899018
5.545689 0.1225769 -0.7924419
5.251532 0.6394701 -1.817872
4.992167 0.8922619 -2.848851
5.083136 0.6254284 -2.555237
5.255714 0.6259434 -1.818857
5.381217 0.4520342 -1.371223
4.9757 0.9079613 -2.834765
5.023403 0.5906413 -2.892125
4.286187 1.90619 -4.026352
5.662928 0.4002659 -0.2137666
5.243608 0.8122405 -1.746914
4.652915 1.517951 -3.594954
5.16848 1.354388 -1.945479
5.129371 1.054232 -2.186926
5.075622 0.6687264 -2.598908
5.066639 0.6001322 -2.614447
5.115914 0.7602012 -2.516449
4.421866 0.9850519 -2.540616
5.07889 0.8255765 -2.484039
5.092069 1.669429 -1.728696
